1.677689361572265625e+02 1.664682312011718750e+02 1.672363433837890625e+02 1.659788818359375000e+02 1.690243377685546875e+02 1.736603240966796875e+02 1.773696441650390625e+02 1.821368865966796875e+02 1.853842468261718750e+02 1.903678894042968750e+02 1.935589904785156250e+02 1.993042297363281250e+02 2.013746337890625000e+02 2.060691375732421875e+02 2.080588531494140625e+02 2.117059783935546875e+02 2.156062011718750000e+02 2.215945281982421875e+02 2.272086334228515625e+02 2.330447540283203125e+02 2.359743652343750000e+02 2.382603912353515625e+02 2.393162536621093750e+02 2.404859008789062500e+02 2.410545501708984375e+02 2.420327911376953125e+02 2.428890991210937500e+02 2.441327819824218750e+02 2.441235504150390625e+02 2.445977325439453125e+02 2.446793212890625000e+02 2.454871978759765625e+02 2.459765472412109375e+02 2.465002899169921875e+02 2.468993377685546875e+02 2.467920989990234375e+02 2.470426483154296875e+02 2.473126525878906250e+02 2.472740783691406250e+02 2.476478271484375000e+02 2.476950988769531250e+02 2.477945556640625000e+02 2.475761413574218750e+02 2.476141510009765625e+02 2.474060363769531250e+02 2.475657196044921875e+02 2.475404205322265625e+02 2.475097503662109375e+02 2.481784820556640625e+02 2.480825805664062500e+02 2.482301788330078125e+02 2.481639556884765625e+02 2.481035461425781250e+02 2.477694396972656250e+02 2.474116210937500000e+02 2.469014587402343750e+02 2.473081207275390625e+02 2.466665191650390625e+02 2.463636016845703125e+02 2.475928039550781250e+02 2.484161224365234375e+02 2.487262573242187500e+02 2.490433807373046875e+02 2.493421478271484375e+02 2.492946929931640625e+02 2.496341400146484375e+02 2.501299896240234375e+02 2.501134185791015625e+02 2.501728057861328125e+02 2.501531829833984375e+02 2.502458496093750000e+02 2.505969238281250000e+02 2.510607147216796875e+02 2.512726898193359375e+02 2.515258483886718750e+02 2.514618530273437500e+02 2.517795104980468750e+02 2.514309234619140625e+02 2.517848052978515625e+02 2.520524597167968750e+02 2.526150207519531250e+02 2.527286529541015625e+02 2.528853454589843750e+02 2.530796051025390625e+02 2.532071075439453125e+02 2.531141510009765625e+02 2.535710754394531250e+02 2.536652374267578125e+02 2.538878479003906250e+02 2.538531646728515625e+02 2.540214996337890625e+02 2.539840087890625000e+02 2.540243377685546875e+02 2.540330810546875000e+02 2.541536102294921875e+02 2.542424621582031250e+02 2.543540802001953125e+02 2.544188842773437500e+02 2.545265045166015625e+02 2.545986938476562500e+02 2.546748657226562500e+02 2.547148437500000000e+02 2.547564697265625000e+02 2.547816162109375000e+02 2.548237304687500000e+02 2.548448486328125000e+02 2.548719329833984375e+02 2.548920898437500000e+02 2.549100341796875000e+02 2.549239196777343750e+02 2.549354553222656250e+02 2.549430999755859375e+02 2.549530487060546875e+02 2.549595031738281250e+02 2.549661254882812500e+02 2.549707031250000000e+02 2.549742431640625000e+02 2.549775390625000000e+02 2.549799652099609375e+02
1.657221374511718750e+02 1.656411895751953125e+02 1.655618438720703125e+02 1.648252105712890625e+02 1.667162322998046875e+02 1.713216705322265625e+02 1.747867889404296875e+02 1.800623321533203125e+02 1.835746459960937500e+02 1.886086120605468750e+02 1.922963256835937500e+02 1.968345794677734375e+02 1.989356536865234375e+02 2.039148864746093750e+02 2.058253479003906250e+02 2.097815093994140625e+02 2.127394409179687500e+02 2.185301818847656250e+02 2.229575347900390625e+02 2.298909759521484375e+02 2.343480834960937500e+02 2.369569396972656250e+02 2.383263092041015625e+02 2.395619812011718750e+02 2.403052062988281250e+02 2.414828186035156250e+02 2.426327667236328125e+02 2.434881439208984375e+02 2.437674407958984375e+02 2.446473846435546875e+02 2.450839691162109375e+02 2.458323211669921875e+02 2.461696319580078125e+02 2.465296020507812500e+02 2.464809722900390625e+02 2.466515197753906250e+02 2.471580352783203125e+02 2.473680419921875000e+02 2.475937652587890625e+02 2.477255249023437500e+02 2.479409942626953125e+02 2.478080902099609375e+02 2.477798309326171875e+02 2.474498138427734375e+02 2.478092498779296875e+02 2.475434112548828125e+02 2.474099578857421875e+02 2.475015106201171875e+02 2.480827026367187500e+02 2.483716583251953125e+02 2.483532409667968750e+02 2.483991546630859375e+02 2.483517608642578125e+02 2.486808624267578125e+02 2.482595977783203125e+02 2.478879852294921875e+02 2.469338989257812500e+02 2.462312927246093750e+02 2.460055236816406250e+02 2.472589416503906250e+02 2.480990753173828125e+02 2.487574920654296875e+02 2.485589752197265625e+02 2.491803436279296875e+02 2.491719207763671875e+02 2.499660339355468750e+02 2.499996490478515625e+02 2.501234893798828125e+02 2.503097839355468750e+02 2.499719238281250000e+02 2.505377502441406250e+02 2.508363494873046875e+02 2.511096343994140625e+02 2.509736633300781250e+02 2.510435485839843750e+02 2.510352172851562500e+02 2.514590301513671875e+02 2.516318817138671875e+02 2.518445739746093750e+02 2.520955505371093750e+02 2.520083160400390625e+02 2.519345397949218750e+02 2.522263183593750000e+02 2.524508514404296875e+02 2.526503448486328125e+02 2.529049530029296875e+02 2.532597808837890625e+02 2.535351867675781250e+02 2.536116638183593750e+02 2.536557464599609375e+02 2.537756195068359375e+02 2.538326110839843750e+02 2.539042968750000000e+02 2.539363250732421875e+02 2.539931488037109375e+02 2.540621337890625000e+02 2.541568908691406250e+02 2.542823028564453125e+02 2.544004821777343750e+02 2.544942474365234375e+02 2.545871582031250000e+02 2.546413269042968750e+02 2.547048492431640625e+02 2.547334442138671875e+02 2.547885284423828125e+02 2.548115081787109375e+02 2.548508148193359375e+02 2.548722686767578125e+02 2.548984985351562500e+02 2.549136199951171875e+02 2.549263916015625000e+02 2.549356689453125000e+02 2.549470825195312500e+02 2.549543304443359375e+02 2.549617614746093750e+02 2.549669342041015625e+02 2.549709472656250000e+02 2.549746704101562500e+02 2.549772338867187500e+02
1.647878570556640625e+02 1.627546234130859375e+02 1.624856109619140625e+02 1.610191192626953125e+02 1.634940795898437500e+02 1.682120971679687500e+02 1.720560760498046875e+02 1.772902069091796875e+02 1.803956909179687500e+02 1.849938354492187500e+02 1.897117614746093750e+02 1.940650939941406250e+02 1.966224365234375000e+02 2.012617645263671875e+02 2.037384185791015625e+02 2.074222412109375000e+02 2.101031036376953125e+02 2.137590179443359375e+02 2.182515258789062500e+02 2.252156982421875000e+02 2.306928710937500000e+02 2.354542388916015625e+02 2.370818939208984375e+02 2.383516082763671875e+02 2.393120727539062500e+02 2.408269958496093750e+02 2.411111145019531250e+02 2.422196044921875000e+02 2.430256652832031250e+02 2.438513793945312500e+02 2.446067962646484375e+02 2.451768035888671875e+02 2.456744079589843750e+02 2.461164550781250000e+02 2.461950988769531250e+02 2.466859893798828125e+02 2.466901855468750000e+02 2.472921752929687500e+02 2.474713439941406250e+02 2.474547729492187500e+02 2.474975738525390625e+02 2.476793365478515625e+02 2.476237335205078125e+02 2.478012695312500000e+02 2.475672912597656250e+02 2.474826660156250000e+02 2.475130310058593750e+02 2.476400909423828125e+02 2.477805023193359375e+02 2.477789764404296875e+02 2.480779571533203125e+02 2.483793029785156250e+02 2.486553192138671875e+02 2.488497772216796875e+02 2.485275726318359375e+02 2.478009643554687500e+02 2.478238983154296875e+02 2.472022094726562500e+02 2.467096252441406250e+02 2.470646514892578125e+02 2.472397155761718750e+02 2.476935272216796875e+02 2.472710723876953125e+02 2.481138000488281250e+02 2.484426116943359375e+02 2.489703674316406250e+02 2.492961120605468750e+02 2.495863342285156250e+02 2.498697814941406250e+02 2.499064788818359375e+02 2.499849548339843750e+02 2.502015838623046875e+02 2.504830169677734375e+02 2.505162963867187500e+02 2.508658599853515625e+02 2.510391387939453125e+02 2.512707977294921875e+02 2.511177062988281250e+02 2.512091217041015625e+02 2.511920013427734375e+02 2.512936706542968750e+02 2.517291870117187500e+02 2.519354858398437500e+02 2.522922363281250000e+02 2.525790100097656250e+02 2.527212677001953125e+02 2.529084167480468750e+02 2.529733886718750000e+02 2.532400054931640625e+02 2.534228363037109375e+02 2.535917205810546875e+02 2.535778350830078125e+02 2.537044982910156250e+02 2.537489624023437500e+02 2.538420104980468750e+02 2.538992004394531250e+02 2.540318145751953125e+02 2.541562042236328125e+02 2.542552642822265625e+02 2.543520355224609375e+02 2.544793395996093750e+02 2.545563964843750000e+02 2.546343231201171875e+02 2.546787109375000000e+02 2.547443695068359375e+02 2.547726440429687500e+02 2.548147277832031250e+02 2.548443298339843750e+02 2.548714599609375000e+02 2.548917541503906250e+02 2.549083251953125000e+02 2.549214324951171875e+02 2.549355010986328125e+02 2.549445037841796875e+02 2.549530029296875000e+02 2.549597930908203125e+02 2.549643707275390625e+02 2.549691619873046875e+02 2.549728698730468750e+02
1.633903350830078125e+02 1.620789794921875000e+02 1.615909881591796875e+02 1.605983581542968750e+02 1.614934234619140625e+02 1.651422882080078125e+02 1.687502593994140625e+02 1.746968536376953125e+02 1.776267395019531250e+02 1.828917694091796875e+02 1.876430358886718750e+02 1.919822998046875000e+02 1.946228179931640625e+02 1.993398132324218750e+02 2.013211517333984375e+02 2.055710296630859375e+02 2.078395996093750000e+02 2.117929840087890625e+02 2.139161529541015625e+02 2.195809173583984375e+02 2.258116760253906250e+02 2.324759368896484375e+02 2.352447509765625000e+02 2.379206085205078125e+02 2.389050292968750000e+02 2.399435882568359375e+02 2.407362060546875000e+02 2.421840057373046875e+02 2.425364379882812500e+02 2.431043090820312500e+02 2.438457183837890625e+02 2.443972930908203125e+02 2.448217163085937500e+02 2.453085937500000000e+02 2.457153167724609375e+02 2.463018493652343750e+02 2.465727386474609375e+02 2.469297943115234375e+02 2.468587036132812500e+02 2.473720092773437500e+02 2.478353881835937500e+02 2.480914611816406250e+02 2.477588043212890625e+02 2.476783752441406250e+02 2.475236206054687500e+02 2.477670898437500000e+02 2.477773895263671875e+02 2.479193878173828125e+02 2.478596649169921875e+02 2.479546813964843750e+02 2.481287994384765625e+02 2.483954467773437500e+02 2.487909088134765625e+02 2.487199096679687500e+02 2.483600006103515625e+02 2.484373168945312500e+02 2.484635925292968750e+02 2.479041442871093750e+02 2.473937225341796875e+02 2.475138092041015625e+02 2.471026000976562500e+02 2.467663421630859375e+02 2.464424896240234375e+02 2.474415283203125000e+02 2.480039215087890625e+02 2.486557769775390625e+02 2.488167877197265625e+02 2.492926483154296875e+02 2.496329040527343750e+02 2.492195129394531250e+02 2.495066680908203125e+02 2.497284240722656250e+02 2.503279113769531250e+02 2.505392761230468750e+02 2.506355743408203125e+02 2.505681152343750000e+02 2.507743225097656250e+02 2.505069885253906250e+02 2.507206268310546875e+02 2.510013885498046875e+02 2.513988037109375000e+02 2.514496307373046875e+02 2.518023681640625000e+02 2.518353424072265625e+02 2.520043029785156250e+02 2.521697845458984375e+02 2.525984344482421875e+02 2.528181152343750000e+02 2.530139312744140625e+02 2.531671600341796875e+02 2.531919860839843750e+02 2.531771545410156250e+02 2.533782043457031250e+02 2.535305786132812500e+02 2.536925354003906250e+02 2.537419891357421875e+02 2.538407287597656250e+02 2.538964385986328125e+02 2.540561218261718750e+02 2.541565551757812500e+02 2.543439178466796875e+02 2.544364013671875000e+02 2.545417022705078125e+02 2.546005401611328125e+02 2.546894683837890625e+02 2.547301330566406250e+02 2.547778625488281250e+02 2.548145599365234375e+02 2.548526611328125000e+02 2.548742675781250000e+02 2.548932342529296875e+02 2.549071655273437500e+02 2.549243011474609375e+02 2.549352874755859375e+02 2.549450683593750000e+02 2.549536132812500000e+02 2.549585266113281250e+02 2.549639892578125000e+02 2.549680023193359375e+02
1.627404937744140625e+02 1.600394592285156250e+02 1.603171844482421875e+02 1.585421600341796875e+02 1.598340759277343750e+02 1.627857666015625000e+02 1.670183868408203125e+02 1.721395263671875000e+02 1.754491577148437500e+02 1.799039764404296875e+02 1.840544281005859375e+02 1.889790039062500000e+02 1.920784606933593750e+02 1.966452484130859375e+02 1.985903778076171875e+02 2.031581726074218750e+02 2.054073791503906250e+02 2.092685699462890625e+02 2.099881439208984375e+02 2.139256286621093750e+02 2.192935028076171875e+02 2.272078704833984375e+02 2.316628570556640625e+02 2.353134460449218750e+02 2.374530029296875000e+02 2.393153533935546875e+02 2.401203613281250000e+02 2.408518829345703125e+02 2.418657073974609375e+02 2.429864501953125000e+02 2.431902618408203125e+02 2.436548767089843750e+02 2.437490844726562500e+02 2.445299835205078125e+02 2.447003479003906250e+02 2.451058044433593750e+02 2.456888732910156250e+02 2.462276153564453125e+02 2.467847137451171875e+02 2.469608001708984375e+02 2.473116149902343750e+02 2.473035430908203125e+02 2.475788726806640625e+02 2.475884399414062500e+02 2.477622222900390625e+02 2.475921936035156250e+02 2.477883605957031250e+02 2.478953857421875000e+02 2.478995666503906250e+02 2.481108551025390625e+02 2.478741912841796875e+02 2.481930847167968750e+02 2.481524658203125000e+02 2.485418090820312500e+02 2.488188934326171875e+02 2.488478088378906250e+02 2.486982116699218750e+02 2.484736175537109375e+02 2.479251556396484375e+02 2.472564697265625000e+02 2.469100494384765625e+02 2.466704864501953125e+02 2.468844757080078125e+02 2.468801116943359375e+02 2.476394500732421875e+02 2.478475646972656250e+02 2.480240478515625000e+02 2.487359771728515625e+02 2.486551055908203125e+02 2.486140441894531250e+02 2.489154815673828125e+02 2.495652770996093750e+02 2.500378875732421875e+02 2.501578369140625000e+02 2.499787902832031250e+02 2.500694580078125000e+02 2.503799743652343750e+02 2.500527496337890625e+02 2.506271972656250000e+02 2.505254821777343750e+02 2.507133636474609375e+02 2.506766662597656250e+02 2.510577697753906250e+02 2.511065521240234375e+02 2.515359191894531250e+02 2.519902038574218750e+02 2.522548217773437500e+02 2.524667816162109375e+02 2.524795532226562500e+02 2.525387268066406250e+02 2.525617980957031250e+02 2.526633453369140625e+02 2.529395141601562500e+02 2.532716979980468750e+02 2.535152435302734375e+02 2.535609588623046875e+02 2.537027282714843750e+02 2.537133026123046875e+02 2.539043426513671875e+02 2.539902496337890625e+02 2.541785430908203125e+02 2.542580108642578125e+02 2.544058227539062500e+02 2.544969329833984375e+02 2.546123657226562500e+02 2.546672668457031250e+02 2.547298431396484375e+02 2.547688751220703125e+02 2.548057098388671875e+02 2.548363037109375000e+02 2.548614654541015625e+02 2.548839263916015625e+02 2.549052886962890625e+02 2.549198150634765625e+02 2.549319763183593750e+02 2.549428405761718750e+02 2.549493713378906250e+02 2.549562530517578125e+02 2.549607391357421875e+02
1.606843719482421875e+02 1.591626129150390625e+02 1.583447570800781250e+02 1.573571014404296875e+02 1.581492156982421875e+02 1.616314849853515625e+02 1.649371032714843750e+02 1.699157104492187500e+02 1.729048004150390625e+02 1.777076721191406250e+02 1.821709747314453125e+02 1.876681518554687500e+02 1.906525268554687500e+02 1.945854949951171875e+02 1.966036834716796875e+02 2.002734527587890625e+02 2.021338348388671875e+02 2.054062347412109375e+02 2.075061798095703125e+02 2.115988311767578125e+02 2.152465972900390625e+02 2.216657104492187500e+02 2.273643798828125000e+02 2.325013122558593750e+02 2.354419860839843750e+02 2.378309478759765625e+02 2.392390594482421875e+02 2.407775115966796875e+02 2.414284362792968750e+02 2.419235992431640625e+02 2.423838043212890625e+02 2.432463531494140625e+02 2.434179229736328125e+02 2.441215057373046875e+02 2.439480133056640625e+02 2.443881530761718750e+02 2.448568725585937500e+02 2.456152343750000000e+02 2.456942291259765625e+02 2.461464843750000000e+02 2.467487945556640625e+02 2.472246398925781250e+02 2.473775329589843750e+02 2.475571289062500000e+02 2.474909973144531250e+02 2.478016967773437500e+02 2.478368072509765625e+02 2.481024932861328125e+02 2.481311798095703125e+02 2.479511718750000000e+02 2.481674652099609375e+02 2.482957916259765625e+02 2.487546386718750000e+02 2.488054351806640625e+02 2.487443084716796875e+02 2.483953094482421875e+02 2.486749725341796875e+02 2.488395538330078125e+02 2.486273345947265625e+02 2.485133972167968750e+02 2.479542541503906250e+02 2.474311370849609375e+02 2.473096008300781250e+02 2.468741607666015625e+02 2.469931488037109375e+02 2.473118743896484375e+02 2.475643920898437500e+02 2.479922180175781250e+02 2.481753692626953125e+02 2.487456970214843750e+02 2.489067993164062500e+02 2.493898315429687500e+02 2.494555816650390625e+02 2.493479766845703125e+02 2.494139709472656250e+02 2.496423034667968750e+02 2.497286834716796875e+02 2.500220794677734375e+02 2.500649566650390625e+02 2.498903350830078125e+02 2.500601959228515625e+02 2.500272827148437500e+02 2.504316711425781250e+02 2.508811798095703125e+02 2.514439544677734375e+02 2.514193420410156250e+02 2.516949615478515625e+02 2.518030090332031250e+02 2.520410766601562500e+02 2.522541656494140625e+02 2.523441772460937500e+02 2.524514465332031250e+02 2.526822204589843750e+02 2.528882141113281250e+02 2.532568817138671875e+02 2.534127197265625000e+02 2.535854034423828125e+02 2.536071777343750000e+02 2.537623748779296875e+02 2.538093719482421875e+02 2.540458984375000000e+02 2.540620574951171875e+02 2.542596282958984375e+02 2.543631439208984375e+02 2.544857025146484375e+02 2.545696563720703125e+02 2.546677703857421875e+02 2.547073211669921875e+02 2.547695617675781250e+02 2.548068237304687500e+02 2.548359527587890625e+02 2.548597106933593750e+02 2.548863220214843750e+02 2.549047241210937500e+02 2.549190063476562500e+02 2.549317474365234375e+02 2.549398498535156250e+02 2.549472961425781250e+02 2.549524078369140625e+02
1.597346343994140625e+02 1.565734863281250000e+02 1.563602600097656250e+02 1.553974914550781250e+02 1.570778503417968750e+02 1.587296447753906250e+02 1.624678955078125000e+02 1.672943115234375000e+02 1.701467437744140625e+02 1.752046508789062500e+02 1.791876983642578125e+02 1.847133331298828125e+02 1.872150726318359375e+02 1.914841003417968750e+02 1.938960876464843750e+02 1.981208953857421875e+02 1.995952758789062500e+02 2.037692260742187500e+02 2.057467803955078125e+02 2.087664489746093750e+02 2.106112060546875000e+02 2.159647521972656250e+02 2.210096282958984375e+02 2.279999237060546875e+02 2.324153137207031250e+02 2.356552124023437500e+02 2.380172424316406250e+02 2.391690521240234375e+02 2.399491424560546875e+02 2.416173248291015625e+02 2.418944091796875000e+02 2.426934814453125000e+02 2.430843505859375000e+02 2.435254364013671875e+02 2.440773315429687500e+02 2.443203735351562500e+02 2.447141876220703125e+02 2.447960357666015625e+02 2.451055450439453125e+02 2.455361938476562500e+02 2.460178070068359375e+02 2.461690979003906250e+02 2.461914367675781250e+02 2.465628204345703125e+02 2.469691772460937500e+02 2.472806854248046875e+02 2.473777465820312500e+02 2.477316741943359375e+02 2.478087005615234375e+02 2.481860809326171875e+02 2.481750640869140625e+02 2.482288360595703125e+02 2.481987762451171875e+02 2.485313720703125000e+02 2.485808105468750000e+02 2.487652282714843750e+02 2.491208648681640625e+02 2.494260711669921875e+02 2.494074707031250000e+02 2.488922882080078125e+02 2.481551055908203125e+02 2.469337158203125000e+02 2.467195739746093750e+02 2.466549835205078125e+02 2.474402465820312500e+02 2.474189300537109375e+02 2.470015716552734375e+02 2.476207733154296875e+02 2.483003234863281250e+02 2.485438537597656250e+02 2.479971771240234375e+02 2.478657836914062500e+02 2.482865905761718750e+02 2.486209106445312500e+02 2.488212432861328125e+02 2.494716796875000000e+02 2.494118347167968750e+02 2.494357910156250000e+02 2.490836639404296875e+02 2.491272277832031250e+02 2.497037811279296875e+02 2.492915802001953125e+02 2.501067962646484375e+02 2.497744293212890625e+02 2.501205902099609375e+02 2.501344299316406250e+02 2.506427917480468750e+02 2.511819000244140625e+02 2.515674133300781250e+02 2.517701568603515625e+02 2.518714447021484375e+02 2.518806304931640625e+02 2.520857696533203125e+02 2.523387451171875000e+02 2.527400665283203125e+02 2.531867370605468750e+02 2.534101104736328125e+02 2.535628662109375000e+02 2.537283782958984375e+02 2.537719573974609375e+02 2.539541473388671875e+02 2.539423980712890625e+02 2.540861968994140625e+02 2.541791839599609375e+02 2.543255004882812500e+02 2.544523468017578125e+02 2.545725097656250000e+02 2.546348419189453125e+02 2.547098083496093750e+02 2.547526245117187500e+02 2.547862396240234375e+02 2.548219909667968750e+02 2.548553924560546875e+02 2.548799591064453125e+02 2.548990173339843750e+02 2.549152069091796875e+02 2.549245452880859375e+02 2.549321594238281250e+02 2.549387817382812500e+02
1.579168548583984375e+02 1.544782867431640625e+02 1.539921417236328125e+02 1.528768768310546875e+02 1.561165771484375000e+02 1.581268005371093750e+02 1.607317810058593750e+02 1.650600891113281250e+02 1.686997985839843750e+02 1.728048248291015625e+02 1.764577636718750000e+02 1.813374023437500000e+02 1.850778961181640625e+02 1.895451507568359375e+02 1.921222839355468750e+02 1.949990539550781250e+02 1.969667510986328125e+02 2.015652465820312500e+02 2.036944732666015625e+02 2.066134490966796875e+02 2.085636596679687500e+02 2.131489562988281250e+02 2.169214477539062500e+02 2.230936431884765625e+02 2.284928131103515625e+02 2.334005126953125000e+02 2.364631042480468750e+02 2.384047851562500000e+02 2.397901458740234375e+02 2.400533752441406250e+02 2.405469970703125000e+02 2.414015960693359375e+02 2.418581542968750000e+02 2.429601287841796875e+02 2.429685516357421875e+02 2.432577667236328125e+02 2.435424041748046875e+02 2.442143707275390625e+02 2.445464324951171875e+02 2.449120788574218750e+02 2.455052185058593750e+02 2.458239898681640625e+02 2.462220611572265625e+02 2.467373962402343750e+02 2.468625030517578125e+02 2.469005737304687500e+02 2.471710662841796875e+02 2.474173889160156250e+02 2.478042449951171875e+02 2.478645782470703125e+02 2.476987762451171875e+02 2.480959472656250000e+02 2.485189208984375000e+02 2.486806945800781250e+02 2.487377929687500000e+02 2.488040924072265625e+02 2.493007202148437500e+02 2.492075958251953125e+02 2.489335021972656250e+02 2.489389801025390625e+02 2.485212097167968750e+02 2.485400543212890625e+02 2.481848144531250000e+02 2.482407684326171875e+02 2.479246826171875000e+02 2.470452575683593750e+02 2.464626159667968750e+02 2.464465026855468750e+02 2.475927124023437500e+02 2.481636199951171875e+02 2.480037536621093750e+02 2.483559417724609375e+02 2.491966094970703125e+02 2.488377227783203125e+02 2.485125427246093750e+02 2.487711639404296875e+02 2.486467742919921875e+02 2.490941314697265625e+02 2.490502929687500000e+02 2.489654541015625000e+02 2.489041595458984375e+02 2.487823181152343750e+02 2.487701416015625000e+02 2.487616424560546875e+02 2.490539703369140625e+02 2.496687927246093750e+02 2.503126983642578125e+02 2.505668334960937500e+02 2.505932464599609375e+02 2.506529998779296875e+02 2.510611877441406250e+02 2.514286956787109375e+02 2.515513000488281250e+02 2.519092102050781250e+02 2.522016143798828125e+02 2.528027343750000000e+02 2.531779632568359375e+02 2.533237304687500000e+02 2.535252380371093750e+02 2.535759887695312500e+02 2.537908782958984375e+02 2.538439636230468750e+02 2.539966583251953125e+02 2.540474853515625000e+02 2.541784973144531250e+02 2.542879943847656250e+02 2.544345550537109375e+02 2.545297393798828125e+02 2.546358184814453125e+02 2.546940917968750000e+02 2.547411346435546875e+02 2.547801361083984375e+02 2.548216857910156250e+02 2.548497161865234375e+02 2.548738861083984375e+02 2.548930664062500000e+02 2.549032897949218750e+02 2.549137420654296875e+02 2.549219055175781250e+02
1.577423858642578125e+02 1.536248168945312500e+02 1.518472442626953125e+02 1.511008453369140625e+02 1.543864135742187500e+02 1.566381072998046875e+02 1.571173553466796875e+02 1.622935943603515625e+02 1.665828094482421875e+02 1.705811004638671875e+02 1.726431274414062500e+02 1.777157745361328125e+02 1.809490661621093750e+02 1.855346527099609375e+02 1.885615386962890625e+02 1.919192810058593750e+02 1.945777130126953125e+02 1.990806274414062500e+02 2.006406707763671875e+02 2.039700927734375000e+02 2.062026062011718750e+02 2.097463836669921875e+02 2.128869476318359375e+02 2.180416412353515625e+02 2.224059448242187500e+02 2.281158599853515625e+02 2.321823272705078125e+02 2.358206939697265625e+02 2.371903991699218750e+02 2.390895385742187500e+02 2.396016540527343750e+02 2.403663787841796875e+02 2.413760528564453125e+02 2.419333648681640625e+02 2.427131347656250000e+02 2.434019775390625000e+02 2.438085327148437500e+02 2.438281860351562500e+02 2.435544891357421875e+02 2.444378051757812500e+02 2.446259307861328125e+02 2.450671844482421875e+02 2.449167633056640625e+02 2.459110260009765625e+02 2.461276092529296875e+02 2.469526824951171875e+02 2.469727630615234375e+02 2.475579833984375000e+02 2.473711242675781250e+02 2.473528747558593750e+02 2.477602691650390625e+02 2.479945678710937500e+02 2.481516571044921875e+02 2.484221649169921875e+02 2.486298980712890625e+02 2.487889862060546875e+02 2.489058227539062500e+02 2.489533691406250000e+02 2.491984405517578125e+02 2.491275787353515625e+02 2.488638305664062500e+02 2.489532318115234375e+02 2.483888244628906250e+02 2.477943115234375000e+02 2.474992065429687500e+02 2.472862854003906250e+02 2.464822540283203125e+02 2.464912414550781250e+02 2.474287109375000000e+02 2.487930755615234375e+02 2.486529541015625000e+02 2.487739868164062500e+02 2.482243957519531250e+02 2.472231140136718750e+02 2.479545898437500000e+02 2.487727050781250000e+02 2.492992248535156250e+02 2.492237854003906250e+02 2.483505096435546875e+02 2.485075988769531250e+02 2.485323638916015625e+02 2.482509460449218750e+02 2.485937042236328125e+02 2.486700592041015625e+02 2.489024505615234375e+02 2.488765563964843750e+02 2.488495178222656250e+02 2.489422607421875000e+02 2.498362426757812500e+02 2.503493041992187500e+02 2.505919189453125000e+02 2.506347198486328125e+02 2.506897430419921875e+02 2.508154602050781250e+02 2.515960388183593750e+02 2.523042297363281250e+02 2.526834106445312500e+02 2.530251312255859375e+02 2.533262481689453125e+02 2.534404449462890625e+02 2.536828002929687500e+02 2.537870788574218750e+02 2.539154052734375000e+02 2.539825439453125000e+02 2.541105041503906250e+02 2.541847076416015625e+02 2.543333129882812500e+02 2.544060363769531250e+02 2.545288391113281250e+02 2.545948944091796875e+02 2.546634216308593750e+02 2.547133941650390625e+02 2.547649993896484375e+02 2.548034973144531250e+02 2.548344268798828125e+02 2.548586425781250000e+02 2.548732147216796875e+02 2.548862762451171875e+02 2.548968811035156250e+02
1.561942291259765625e+02 1.502915191650390625e+02 1.486416778564453125e+02 1.471874542236328125e+02 1.515782165527343750e+02 1.530730743408203125e+02 1.565222320556640625e+02 1.615174713134765625e+02 1.649289703369140625e+02 1.683085937500000000e+02 1.703348999023437500e+02 1.751984710693359375e+02 1.790022583007812500e+02 1.829346618652343750e+02 1.863281707763671875e+02 1.898038635253906250e+02 1.923401641845703125e+02 1.961735076904296875e+02 1.981272735595703125e+02 2.019633941650390625e+02 2.040629577636718750e+02 2.076606140136718750e+02 2.101720886230468750e+02 2.136515502929687500e+02 2.166194305419921875e+02 2.229138793945312500e+02 2.279152526855468750e+02 2.323705902099609375e+02 2.352250518798828125e+02 2.378488464355468750e+02 2.389096069335937500e+02 2.395068664550781250e+02 2.400979309082031250e+02 2.413399200439453125e+02 2.420432434082031250e+02 2.423961029052734375e+02 2.427146148681640625e+02 2.428304443359375000e+02 2.436356201171875000e+02 2.440803985595703125e+02 2.441439361572265625e+02 2.449273223876953125e+02 2.452278900146484375e+02 2.457695312500000000e+02 2.463334655761718750e+02 2.468687896728515625e+02 2.469824218750000000e+02 2.472316436767578125e+02 2.471038208007812500e+02 2.475424804687500000e+02 2.476292724609375000e+02 2.476651611328125000e+02 2.479331359863281250e+02 2.484781494140625000e+02 2.485721435546875000e+02 2.486365509033203125e+02 2.492392883300781250e+02 2.492083892822265625e+02 2.489533233642578125e+02 2.489190216064453125e+02 2.491210021972656250e+02 2.490831604003906250e+02 2.486643218994140625e+02 2.483488464355468750e+02 2.485681304931640625e+02 2.473946685791015625e+02 2.472328796386718750e+02 2.466485595703125000e+02 2.471450958251953125e+02 2.477420501708984375e+02 2.474409790039062500e+02 2.478380126953125000e+02 2.483509368896484375e+02 2.489405517578125000e+02 2.489126129150390625e+02 2.496643829345703125e+02 2.490238952636718750e+02 2.483110809326171875e+02 2.479056243896484375e+02 2.481446075439453125e+02 2.485766296386718750e+02 2.481332397460937500e+02 2.486723480224609375e+02 2.480214080810546875e+02 2.482292327880859375e+02 2.475552368164062500e+02 2.479615020751953125e+02 2.490608367919921875e+02 2.495411834716796875e+02 2.497529907226562500e+02 2.497146148681640625e+02 2.499972229003906250e+02 2.502743377685546875e+02 2.505384368896484375e+02 2.510924530029296875e+02 2.517879791259765625e+02 2.523798065185546875e+02 2.529390563964843750e+02 2.531538238525390625e+02 2.533307800292968750e+02 2.535125427246093750e+02 2.536293487548828125e+02 2.537729187011718750e+02 2.538736572265625000e+02 2.540351409912109375e+02 2.540858001708984375e+02 2.542040100097656250e+02 2.542767181396484375e+02 2.543963775634765625e+02 2.544947204589843750e+02 2.545901947021484375e+02 2.546481170654296875e+02 2.547163085937500000e+02 2.547570953369140625e+02 2.547888336181640625e+02 2.548190002441406250e+02 2.548381042480468750e+02 2.548532257080078125e+02 2.548667907714843750e+02
1.562048339843750000e+02 1.501835021972656250e+02 1.478109588623046875e+02 1.450339965820312500e+02 1.476898040771484375e+02 1.510413513183593750e+02 1.531926422119140625e+02 1.574428253173828125e+02 1.608140563964843750e+02 1.664351654052734375e+02 1.690288085937500000e+02 1.738140258789062500e+02 1.763687286376953125e+02 1.802944030761718750e+02 1.828538055419921875e+02 1.868963775634765625e+02 1.895272521972656250e+02 1.930713806152343750e+02 1.950932464599609375e+02 1.986386260986328125e+02 2.011857147216796875e+02 2.044385833740234375e+02 2.068696746826171875e+02 2.102571868896484375e+02 2.129370117187500000e+02 2.165415191650390625e+02 2.197946777343750000e+02 2.265395050048828125e+02 2.307613830566406250e+02 2.344005279541015625e+02 2.370273437500000000e+02 2.383573760986328125e+02 2.392963409423828125e+02 2.404134674072265625e+02 2.406831359863281250e+02 2.419017181396484375e+02 2.423722686767578125e+02 2.426746063232421875e+02 2.427984466552734375e+02 2.436551818847656250e+02 2.445186309814453125e+02 2.449010772705078125e+02 2.446751556396484375e+02 2.453581085205078125e+02 2.457705993652343750e+02 2.460880889892578125e+02 2.463553009033203125e+02 2.468869018554687500e+02 2.470927276611328125e+02 2.473961486816406250e+02 2.473213043212890625e+02 2.474308471679687500e+02 2.476015930175781250e+02 2.478085632324218750e+02 2.479434051513671875e+02 2.481240997314453125e+02 2.484274902343750000e+02 2.484315032958984375e+02 2.488558349609375000e+02 2.491367187500000000e+02 2.493901367187500000e+02 2.492738494873046875e+02 2.489504699707031250e+02 2.487088012695312500e+02 2.480561370849609375e+02 2.474880981445312500e+02 2.467183685302734375e+02 2.458937072753906250e+02 2.458393707275390625e+02 2.459868469238281250e+02 2.463857574462890625e+02 2.472348632812500000e+02 2.480487060546875000e+02 2.476422271728515625e+02 2.476359863281250000e+02 2.473364410400390625e+02 2.480565185546875000e+02 2.481053924560546875e+02 2.478577423095703125e+02 2.477338562011718750e+02 2.470994720458984375e+02 2.475899658203125000e+02 2.469116821289062500e+02 2.477519683837890625e+02 2.476790161132812500e+02 2.480259704589843750e+02 2.478193359375000000e+02 2.482704162597656250e+02 2.480658721923828125e+02 2.482117156982421875e+02 2.490232543945312500e+02 2.496991577148437500e+02 2.494812469482421875e+02 2.495424346923828125e+02 2.500920104980468750e+02 2.510111083984375000e+02 2.519027557373046875e+02 2.524818115234375000e+02 2.528619079589843750e+02 2.531431579589843750e+02 2.532769165039062500e+02 2.534227447509765625e+02 2.536601409912109375e+02 2.538311004638671875e+02 2.540041198730468750e+02 2.540125427246093750e+02 2.541537628173828125e+02 2.541902160644531250e+02 2.543092346191406250e+02 2.544133453369140625e+02 2.545178680419921875e+02 2.545752868652343750e+02 2.546323852539062500e+02 2.546910858154296875e+02 2.547272338867187500e+02 2.547578582763671875e+02 2.547799530029296875e+02 2.548023376464843750e+02 2.548222961425781250e+02
1.562522277832031250e+02 1.497454376220703125e+02 1.463082275390625000e+02 1.418924560546875000e+02 1.454485168457031250e+02 1.489324493408203125e+02 1.507396850585937500e+02 1.551363830566406250e+02 1.595582122802734375e+02 1.643672790527343750e+02 1.665001678466796875e+02 1.704548645019531250e+02 1.742415924072265625e+02 1.785828857421875000e+02 1.802485504150390625e+02 1.848117218017578125e+02 1.869449920654296875e+02 1.901817169189453125e+02 1.924728546142578125e+02 1.966678924560546875e+02 1.986649780273437500e+02 2.016080017089843750e+02 2.039292449951171875e+02 2.077143249511718750e+02 2.106315002441406250e+02 2.126371612548828125e+02 2.161199035644531250e+02 2.217010345458984375e+02 2.264297332763671875e+02 2.317389373779296875e+02 2.346476745605468750e+02 2.373224487304687500e+02 2.389102935791015625e+02 2.394942626953125000e+02 2.405686950683593750e+02 2.413374328613281250e+02 2.415254058837890625e+02 2.419270477294921875e+02 2.424389038085937500e+02 2.433594818115234375e+02 2.436589813232421875e+02 2.441945037841796875e+02 2.448513183593750000e+02 2.453357238769531250e+02 2.458519439697265625e+02 2.466486053466796875e+02 2.470306091308593750e+02 2.471267700195312500e+02 2.471194610595703125e+02 2.472497253417968750e+02 2.474963226318359375e+02 2.475819396972656250e+02 2.480257873535156250e+02 2.482703704833984375e+02 2.484620513916015625e+02 2.483953552246093750e+02 2.483954010009765625e+02 2.486133575439453125e+02 2.483728485107421875e+02 2.487304992675781250e+02 2.486780395507812500e+02 2.489141082763671875e+02 2.485316314697265625e+02 2.484502563476562500e+02 2.484813995361328125e+02 2.480760803222656250e+02 2.476622161865234375e+02 2.462471923828125000e+02 2.462940368652343750e+02 2.463104400634765625e+02 2.463164672851562500e+02 2.464176330566406250e+02 2.460355834960937500e+02 2.467437133789062500e+02 2.466533966064453125e+02 2.478016967773437500e+02 2.484422302246093750e+02 2.480406799316406250e+02 2.471272735595703125e+02 2.471518859863281250e+02 2.470572967529296875e+02 2.463889160156250000e+02 2.466497192382812500e+02 2.465729980468750000e+02 2.475019378662109375e+02 2.468935546875000000e+02 2.471937866210937500e+02 2.473312683105468750e+02 2.479020385742187500e+02 2.482938232421875000e+02 2.487671051025390625e+02 2.489047241210937500e+02 2.486828765869140625e+02 2.488969726562500000e+02 2.497622070312500000e+02 2.503804473876953125e+02 2.509595031738281250e+02 2.518071136474609375e+02 2.524271850585937500e+02 2.526761474609375000e+02 2.529044036865234375e+02 2.531392211914062500e+02 2.533602447509765625e+02 2.536472473144531250e+02 2.538523864746093750e+02 2.539715728759765625e+02 2.541032714843750000e+02 2.541162567138671875e+02 2.542368621826171875e+02 2.543127288818359375e+02 2.544536590576171875e+02 2.544997253417968750e+02 2.545568695068359375e+02 2.546102294921875000e+02 2.546522216796875000e+02 2.546833953857421875e+02 2.547127075195312500e+02 2.547365570068359375e+02 2.547625579833984375e+02
1.552900085449218750e+02 1.490246887207031250e+02 1.470089416503906250e+02 1.444712982177734375e+02 1.455008239746093750e+02 1.477469482421875000e+02 1.499166870117187500e+02 1.531754150390625000e+02 1.569731140136718750e+02 1.613056335449218750e+02 1.649478912353515625e+02 1.696219024658203125e+02 1.720172424316406250e+02 1.754051513671875000e+02 1.776988067626953125e+02 1.816160125732421875e+02 1.844744873046875000e+02 1.868882598876953125e+02 1.894425048828125000e+02 1.930213623046875000e+02 1.952145690917968750e+02 1.981217193603515625e+02 2.004231262207031250e+02 2.043690032958984375e+02 2.066797332763671875e+02 2.091371307373046875e+02 2.114566192626953125e+02 2.161478576660156250e+02 2.200827026367187500e+02 2.265970611572265625e+02 2.310308685302734375e+02 2.349965515136718750e+02 2.366775207519531250e+02 2.384636535644531250e+02 2.392232513427734375e+02 2.402701873779296875e+02 2.406677246093750000e+02 2.417074279785156250e+02 2.424930267333984375e+02 2.429553985595703125e+02 2.434164123535156250e+02 2.437345428466796875e+02 2.440370178222656250e+02 2.450707702636718750e+02 2.454760589599609375e+02 2.459364318847656250e+02 2.458599700927734375e+02 2.463583374023437500e+02 2.469645996093750000e+02 2.475308990478515625e+02 2.476984100341796875e+02 2.479071350097656250e+02 2.477534942626953125e+02 2.481306304931640625e+02 2.481535339355468750e+02 2.485736846923828125e+02 2.487174835205078125e+02 2.484415130615234375e+02 2.484002838134765625e+02 2.484699554443359375e+02 2.488973999023437500e+02 2.487765045166015625e+02 2.487704467773437500e+02 2.486595916748046875e+02 2.485808563232421875e+02 2.483390655517578125e+02 2.476940460205078125e+02 2.469453887939453125e+02 2.462951965332031250e+02 2.458249359130859375e+02 2.439514923095703125e+02 2.435596160888671875e+02 2.445239105224609375e+02 2.453738250732421875e+02 2.457152252197265625e+02 2.463628234863281250e+02 2.466181488037109375e+02 2.461012115478515625e+02 2.464005889892578125e+02 2.465924377441406250e+02 2.466495056152343750e+02 2.463017272949218750e+02 2.454198303222656250e+02 2.453423767089843750e+02 2.449723052978515625e+02 2.460822448730468750e+02 2.466477661132812500e+02 2.469156494140625000e+02 2.470079650878906250e+02 2.472172851562500000e+02 2.476253051757812500e+02 2.478606872558593750e+02 2.481036224365234375e+02 2.484276123046875000e+02 2.484260101318359375e+02 2.487784271240234375e+02 2.496737823486328125e+02 2.510517425537109375e+02 2.515562133789062500e+02 2.520763244628906250e+02 2.523833007812500000e+02 2.527960205078125000e+02 2.530646362304687500e+02 2.533595733642578125e+02 2.536273803710937500e+02 2.537533569335937500e+02 2.539219360351562500e+02 2.541031799316406250e+02 2.541914062500000000e+02 2.542542114257812500e+02 2.543551940917968750e+02 2.544321746826171875e+02 2.545047912597656250e+02 2.545442199707031250e+02 2.545516204833984375e+02 2.545841674804687500e+02 2.546238555908203125e+02 2.546602020263671875e+02 2.546891784667968750e+02
1.555612792968750000e+02 1.490098266601562500e+02 1.469570007324218750e+02 1.428265533447265625e+02 1.436491241455078125e+02 1.477501678466796875e+02 1.509075927734375000e+02 1.533699188232421875e+02 1.563212432861328125e+02 1.606971588134765625e+02 1.637213287353515625e+02 1.668363189697265625e+02 1.688749237060546875e+02 1.735098571777343750e+02 1.762160491943359375e+02 1.799816436767578125e+02 1.820156860351562500e+02 1.849821319580078125e+02 1.870314178466796875e+02 1.910113220214843750e+02 1.931030883789062500e+02 1.961229248046875000e+02 1.975900726318359375e+02 2.009887847900390625e+02 2.033989410400390625e+02 2.065163726806640625e+02 2.082228546142578125e+02 2.123542785644531250e+02 2.159572296142578125e+02 2.219457244873046875e+02 2.267241058349609375e+02 2.322579040527343750e+02 2.345909271240234375e+02 2.372145843505859375e+02 2.386294097900390625e+02 2.396038360595703125e+02 2.405548553466796875e+02 2.409656066894531250e+02 2.413203125000000000e+02 2.422005004882812500e+02 2.425921478271484375e+02 2.430708618164062500e+02 2.436087951660156250e+02 2.444412231445312500e+02 2.448563995361328125e+02 2.453011169433593750e+02 2.458245544433593750e+02 2.464421386718750000e+02 2.471110076904296875e+02 2.476611480712890625e+02 2.476165924072265625e+02 2.477362518310546875e+02 2.480438690185546875e+02 2.484016113281250000e+02 2.484388580322265625e+02 2.486571502685546875e+02 2.486696319580078125e+02 2.486109313964843750e+02 2.484961090087890625e+02 2.486466827392578125e+02 2.487422485351562500e+02 2.487031555175781250e+02 2.486861114501953125e+02 2.481717681884765625e+02 2.483259429931640625e+02 2.485041656494140625e+02 2.481710815429687500e+02 2.480927886962890625e+02 2.473792419433593750e+02 2.460299072265625000e+02 2.448291015625000000e+02 2.441044158935546875e+02 2.442974700927734375e+02 2.447754516601562500e+02 2.443842620849609375e+02 2.455073242187500000e+02 2.460523834228515625e+02 2.469824218750000000e+02 2.460102081298828125e+02 2.455467987060546875e+02 2.453319244384765625e+02 2.452676239013671875e+02 2.449790954589843750e+02 2.456256866455078125e+02 2.458186187744140625e+02 2.461455535888671875e+02 2.457878265380859375e+02 2.461032562255859375e+02 2.465143890380859375e+02 2.464801330566406250e+02 2.472034149169921875e+02 2.474735565185546875e+02 2.475807952880859375e+02 2.471326293945312500e+02 2.478433837890625000e+02 2.483124084472656250e+02 2.490086975097656250e+02 2.498394470214843750e+02 2.508704376220703125e+02 2.517075653076171875e+02 2.520375671386718750e+02 2.524666900634765625e+02 2.526380462646484375e+02 2.530797729492187500e+02 2.534118194580078125e+02 2.536203765869140625e+02 2.538091583251953125e+02 2.539457702636718750e+02 2.540782012939453125e+02 2.541614685058593750e+02 2.542612152099609375e+02 2.543076477050781250e+02 2.543915405273437500e+02 2.544548492431640625e+02 2.544856567382812500e+02 2.545121765136718750e+02 2.545639190673828125e+02 2.545838317871093750e+02 2.546015014648437500e+02
1.525681152343750000e+02 1.485182800292968750e+02 1.465180053710937500e+02 1.424940032958984375e+02 1.436434020996093750e+02 1.467518768310546875e+02 1.493919372558593750e+02 1.507944946289062500e+02 1.546966552734375000e+02 1.600719299316406250e+02 1.617604217529296875e+02 1.650720062255859375e+02 1.682422180175781250e+02 1.718414764404296875e+02 1.743480987548828125e+02 1.764272613525390625e+02 1.789906921386718750e+02 1.826825866699218750e+02 1.837338714599609375e+02 1.874061584472656250e+02 1.897140350341796875e+02 1.930897521972656250e+02 1.941399993896484375e+02 1.978029937744140625e+02 2.006518249511718750e+02 2.035135040283203125e+02 2.053803405761718750e+02 2.088818817138671875e+02 2.116986694335937500e+02 2.162899475097656250e+02 2.208680114746093750e+02 2.272066650390625000e+02 2.309526824951171875e+02 2.343089904785156250e+02 2.363994903564453125e+02 2.381404876708984375e+02 2.391731872558593750e+02 2.401916198730468750e+02 2.414039459228515625e+02 2.420872955322265625e+02 2.421904144287109375e+02 2.429374084472656250e+02 2.431634826660156250e+02 2.434190216064453125e+02 2.435808868408203125e+02 2.440641021728515625e+02 2.447772827148437500e+02 2.455006103515625000e+02 2.462447357177734375e+02 2.468440093994140625e+02 2.472296447753906250e+02 2.474591674804687500e+02 2.480829162597656250e+02 2.483074035644531250e+02 2.482918548583984375e+02 2.481980438232421875e+02 2.483233795166015625e+02 2.484768676757812500e+02 2.484380798339843750e+02 2.482687835693359375e+02 2.484197540283203125e+02 2.486275939941406250e+02 2.486910247802734375e+02 2.489901123046875000e+02 2.488813476562500000e+02 2.485559387207031250e+02 2.483188171386718750e+02 2.476889648437500000e+02 2.472874298095703125e+02 2.457316894531250000e+02 2.449390716552734375e+02 2.425137634277343750e+02 2.426286621093750000e+02 2.433851013183593750e+02 2.443703002929687500e+02 2.452835998535156250e+02 2.460791625976562500e+02 2.460778350830078125e+02 2.440761260986328125e+02 2.439278259277343750e+02 2.441078643798828125e+02 2.442734222412109375e+02 2.448164978027343750e+02 2.449030609130859375e+02 2.449747467041015625e+02 2.453810424804687500e+02 2.457252349853515625e+02 2.461278533935546875e+02 2.460157623291015625e+02 2.458912048339843750e+02 2.457952117919921875e+02 2.456448364257812500e+02 2.462193298339843750e+02 2.469583740234375000e+02 2.469864501953125000e+02 2.475341949462890625e+02 2.475704498291015625e+02 2.486634368896484375e+02 2.498172760009765625e+02 2.507690582275390625e+02 2.511184387207031250e+02 2.519547882080078125e+02 2.524264984130859375e+02 2.528646240234375000e+02 2.530453186035156250e+02 2.533527832031250000e+02 2.535072631835937500e+02 2.537332916259765625e+02 2.538898925781250000e+02 2.540165557861328125e+02 2.541225128173828125e+02 2.541858062744140625e+02 2.542371978759765625e+02 2.542948303222656250e+02 2.543465576171875000e+02 2.544060363769531250e+02 2.544599914550781250e+02 2.544955749511718750e+02 2.545390014648437500e+02
1.523944702148437500e+02 1.474353942871093750e+02 1.452125091552734375e+02 1.405466461181640625e+02 1.420028076171875000e+02 1.457797698974609375e+02 1.480037536621093750e+02 1.523521118164062500e+02 1.553788299560546875e+02 1.594962463378906250e+02 1.605341949462890625e+02 1.639029235839843750e+02 1.669472198486328125e+02 1.710062103271484375e+02 1.726359100341796875e+02 1.746620025634765625e+02 1.773250885009765625e+02 1.802335968017578125e+02 1.821197204589843750e+02 1.852959442138671875e+02 1.874038391113281250e+02 1.911550750732421875e+02 1.919383392333984375e+02 1.954820709228515625e+02 1.976242980957031250e+02 2.005694580078125000e+02 2.025609893798828125e+02 2.066127929687500000e+02 2.081388244628906250e+02 2.125701446533203125e+02 2.164765777587890625e+02 2.232134704589843750e+02 2.275853881835937500e+02 2.319633178710937500e+02 2.346517333984375000e+02 2.368855590820312500e+02 2.381840209960937500e+02 2.392974700927734375e+02 2.399561004638671875e+02 2.407799072265625000e+02 2.415054016113281250e+02 2.421273498535156250e+02 2.419785766601562500e+02 2.431548919677734375e+02 2.432792816162109375e+02 2.438639831542968750e+02 2.438130645751953125e+02 2.449370117187500000e+02 2.453847961425781250e+02 2.463479614257812500e+02 2.464800872802734375e+02 2.471887664794921875e+02 2.473645477294921875e+02 2.479348907470703125e+02 2.476869812011718750e+02 2.482712554931640625e+02 2.483897247314453125e+02 2.480717315673828125e+02 2.481111450195312500e+02 2.481210174560546875e+02 2.484584960937500000e+02 2.483865661621093750e+02 2.485143432617187500e+02 2.483536224365234375e+02 2.484043426513671875e+02 2.483524627685546875e+02 2.481468200683593750e+02 2.480108947753906250e+02 2.477541503906250000e+02 2.471741027832031250e+02 2.453183746337890625e+02 2.437999420166015625e+02 2.436433563232421875e+02 2.438158874511718750e+02 2.445791473388671875e+02 2.455326538085937500e+02 2.453867340087890625e+02 2.451226348876953125e+02 2.441266632080078125e+02 2.446170349121093750e+02 2.434685821533203125e+02 2.440507202148437500e+02 2.436031494140625000e+02 2.442032318115234375e+02 2.444892730712890625e+02 2.457186889648437500e+02 2.457064208984375000e+02 2.455130462646484375e+02 2.454770202636718750e+02 2.458828582763671875e+02 2.461643524169921875e+02 2.457503051757812500e+02 2.458299865722656250e+02 2.453977508544921875e+02 2.461219329833984375e+02 2.466728363037109375e+02 2.474338378906250000e+02 2.479459991455078125e+02 2.489265441894531250e+02 2.496338043212890625e+02 2.504283905029296875e+02 2.514638977050781250e+02 2.519888000488281250e+02 2.523723602294921875e+02 2.526320343017578125e+02 2.530025177001953125e+02 2.533426208496093750e+02 2.535533905029296875e+02 2.537154693603515625e+02 2.538537139892578125e+02 2.539493560791015625e+02 2.540292053222656250e+02 2.541188659667968750e+02 2.542051544189453125e+02 2.542699737548828125e+02 2.543007659912109375e+02 2.543329772949218750e+02 2.543781738281250000e+02 2.544000091552734375e+02
1.512804412841796875e+02 1.446538543701171875e+02 1.437950286865234375e+02 1.403304290771484375e+02 1.436180725097656250e+02 1.449131774902343750e+02 1.468951263427734375e+02 1.500220336914062500e+02 1.520569458007812500e+02 1.562041015625000000e+02 1.580531768798828125e+02 1.613822631835937500e+02 1.643519134521484375e+02 1.682174072265625000e+02 1.696469573974609375e+02 1.721839599609375000e+02 1.739038238525390625e+02 1.772033538818359375e+02 1.789863128662109375e+02 1.813665161132812500e+02 1.840290069580078125e+02 1.874353637695312500e+02 1.887774810791015625e+02 1.918253784179687500e+02 1.942882843017578125e+02 1.971663818359375000e+02 1.990758514404296875e+02 2.024743041992187500e+02 2.046833343505859375e+02 2.083234558105468750e+02 2.104217529296875000e+02 2.161164550781250000e+02 2.203089447021484375e+02 2.272653656005859375e+02 2.308368835449218750e+02 2.343137969970703125e+02 2.363556823730468750e+02 2.378448333740234375e+02 2.386030578613281250e+02 2.399739685058593750e+02 2.401398315429687500e+02 2.411600189208984375e+02 2.416893615722656250e+02 2.424169158935546875e+02 2.423569793701171875e+02 2.424707794189453125e+02 2.435389862060546875e+02 2.441317138671875000e+02 2.448904876708984375e+02 2.455778198242187500e+02 2.457551727294921875e+02 2.461743316650390625e+02 2.469544372558593750e+02 2.472332305908203125e+02 2.474213714599609375e+02 2.476707611083984375e+02 2.477251892089843750e+02 2.477673492431640625e+02 2.480255432128906250e+02 2.481072540283203125e+02 2.478790588378906250e+02 2.480066070556640625e+02 2.479990081787109375e+02 2.481455078125000000e+02 2.484916229248046875e+02 2.483460693359375000e+02 2.483826446533203125e+02 2.481560058593750000e+02 2.478855438232421875e+02 2.468334655761718750e+02 2.460676727294921875e+02 2.445220489501953125e+02 2.440389251708984375e+02 2.433261566162109375e+02 2.435177459716796875e+02 2.441438903808593750e+02 2.450712432861328125e+02 2.451692504882812500e+02 2.447238464355468750e+02 2.447958374023437500e+02 2.441088104248046875e+02 2.435146331787109375e+02 2.440753326416015625e+02 2.449555511474609375e+02 2.449039611816406250e+02 2.451495513916015625e+02 2.445816802978515625e+02 2.449671325683593750e+02 2.453893737792968750e+02 2.455325622558593750e+02 2.457657623291015625e+02 2.457683410644531250e+02 2.454092864990234375e+02 2.456988677978515625e+02 2.453206481933593750e+02 2.468935241699218750e+02 2.470951690673828125e+02 2.467807769775390625e+02 2.467922210693359375e+02 2.476348419189453125e+02 2.487808532714843750e+02 2.500263061523437500e+02 2.508765106201171875e+02 2.515514678955078125e+02 2.519476470947265625e+02 2.525289306640625000e+02 2.528601837158203125e+02 2.531761016845703125e+02 2.534057617187500000e+02 2.535056762695312500e+02 2.536711273193359375e+02 2.538240966796875000e+02 2.539534149169921875e+02 2.540541076660156250e+02 2.540998535156250000e+02 2.541708984375000000e+02 2.542401885986328125e+02 2.542894134521484375e+02 2.543291320800781250e+02
1.511006469726562500e+02 1.447682342529296875e+02 1.419852142333984375e+02 1.382754058837890625e+02 1.407952728271484375e+02 1.421965179443359375e+02 1.445350952148437500e+02 1.481495666503906250e+02 1.508745117187500000e+02 1.550151367187500000e+02 1.571466217041015625e+02 1.596393737792968750e+02 1.625790100097656250e+02 1.669745330810546875e+02 1.682688598632812500e+02 1.701756744384765625e+02 1.725163116455078125e+02 1.752290802001953125e+02 1.774186859130859375e+02 1.787987518310546875e+02 1.815588073730468750e+02 1.853373413085937500e+02 1.861720733642578125e+02 1.896002655029296875e+02 1.919898986816406250e+02 1.952738647460937500e+02 1.965587463378906250e+02 1.996783752441406250e+02 2.016811370849609375e+02 2.054347991943359375e+02 2.071751098632812500e+02 2.110841217041015625e+02 2.147989501953125000e+02 2.208583984375000000e+02 2.250193481445312500e+02 2.306216888427734375e+02 2.331157379150390625e+02 2.362683563232421875e+02 2.378359832763671875e+02 2.387500915527343750e+02 2.395883789062500000e+02 2.404103088378906250e+02 2.408346405029296875e+02 2.415229339599609375e+02 2.419787445068359375e+02 2.425069732666015625e+02 2.436072845458984375e+02 2.443905944824218750e+02 2.447895965576171875e+02 2.451473236083984375e+02 2.453339691162109375e+02 2.462001037597656250e+02 2.462615356445312500e+02 2.468166656494140625e+02 2.465582275390625000e+02 2.475384674072265625e+02 2.476192016601562500e+02 2.477612304687500000e+02 2.479272918701171875e+02 2.478122863769531250e+02 2.480120391845703125e+02 2.482237243652343750e+02 2.480576171875000000e+02 2.482881774902343750e+02 2.477623901367187500e+02 2.477500457763671875e+02 2.478598785400390625e+02 2.474812927246093750e+02 2.474804992675781250e+02 2.476259918212890625e+02 2.467902679443359375e+02 2.456929779052734375e+02 2.444909820556640625e+02 2.435317993164062500e+02 2.423770904541015625e+02 2.428703308105468750e+02 2.438360900878906250e+02 2.441302185058593750e+02 2.438392028808593750e+02 2.450837707519531250e+02 2.436815795898437500e+02 2.440419158935546875e+02 2.440493011474609375e+02 2.439232025146484375e+02 2.441707611083984375e+02 2.446350402832031250e+02 2.451865386962890625e+02 2.448156890869140625e+02 2.445850982666015625e+02 2.448616180419921875e+02 2.458381805419921875e+02 2.458788452148437500e+02 2.463328247070312500e+02 2.456943054199218750e+02 2.451832122802734375e+02 2.452807312011718750e+02 2.456667175292968750e+02 2.462114257812500000e+02 2.466349945068359375e+02 2.473666839599609375e+02 2.478093872070312500e+02 2.486781768798828125e+02 2.497526092529296875e+02 2.509402770996093750e+02 2.515135040283203125e+02 2.520614166259765625e+02 2.523575439453125000e+02 2.527580871582031250e+02 2.529329376220703125e+02 2.532212524414062500e+02 2.533716583251953125e+02 2.535418243408203125e+02 2.536698455810546875e+02 2.537762603759765625e+02 2.538960113525390625e+02 2.540184326171875000e+02 2.541075439453125000e+02 2.541696166992187500e+02 2.541970367431640625e+02
1.516558074951171875e+02 1.434710235595703125e+02 1.423566894531250000e+02 1.397690277099609375e+02 1.419042663574218750e+02 1.424981536865234375e+02 1.437246093750000000e+02 1.461644134521484375e+02 1.482688598632812500e+02 1.530499877929687500e+02 1.550907440185546875e+02 1.579166564941406250e+02 1.594987030029296875e+02 1.635216674804687500e+02 1.639494781494140625e+02 1.668494567871093750e+02 1.687162170410156250e+02 1.723591308593750000e+02 1.742653045654296875e+02 1.763815002441406250e+02 1.784137878417968750e+02 1.812673797607421875e+02 1.833065032958984375e+02 1.865082397460937500e+02 1.884814910888671875e+02 1.919918975830078125e+02 1.932713623046875000e+02 1.965301666259765625e+02 1.977823028564453125e+02 2.022178192138671875e+02 2.032754211425781250e+02 2.077667236328125000e+02 2.100327911376953125e+02 2.140904083251953125e+02 2.177383270263671875e+02 2.237152862548828125e+02 2.277249908447265625e+02 2.319841918945312500e+02 2.341982116699218750e+02 2.371384887695312500e+02 2.383589172363281250e+02 2.394776000976562500e+02 2.397795562744140625e+02 2.410733489990234375e+02 2.411808319091796875e+02 2.420393676757812500e+02 2.423457336425781250e+02 2.434840850830078125e+02 2.439988555908203125e+02 2.450641937255859375e+02 2.455166320800781250e+02 2.458427429199218750e+02 2.461546936035156250e+02 2.467348175048828125e+02 2.468159332275390625e+02 2.471138763427734375e+02 2.473724822998046875e+02 2.475458984375000000e+02 2.478601837158203125e+02 2.478905944824218750e+02 2.480335693359375000e+02 2.478714141845703125e+02 2.474874114990234375e+02 2.475687103271484375e+02 2.476511077880859375e+02 2.477245941162109375e+02 2.477880249023437500e+02 2.475290985107421875e+02 2.479796142578125000e+02 2.476109924316406250e+02 2.473400268554687500e+02 2.464772949218750000e+02 2.459801788330078125e+02 2.441241455078125000e+02 2.420750274658203125e+02 2.412111663818359375e+02 2.408391113281250000e+02 2.419083404541015625e+02 2.423457031250000000e+02 2.440155944824218750e+02 2.430866241455078125e+02 2.434558105468750000e+02 2.417857818603515625e+02 2.431392517089843750e+02 2.432856140136718750e+02 2.441251831054687500e+02 2.434956207275390625e+02 2.441390991210937500e+02 2.445087127685546875e+02 2.453568115234375000e+02 2.459396514892578125e+02 2.458515930175781250e+02 2.462150573730468750e+02 2.458337860107421875e+02 2.458080596923828125e+02 2.454327392578125000e+02 2.455918579101562500e+02 2.461937255859375000e+02 2.467142639160156250e+02 2.454773712158203125e+02 2.453538208007812500e+02 2.467603302001953125e+02 2.482817382812500000e+02 2.497171020507812500e+02 2.506957244873046875e+02 2.514076385498046875e+02 2.518159484863281250e+02 2.522266998291015625e+02 2.524496917724609375e+02 2.527333984375000000e+02 2.529306793212890625e+02 2.530293426513671875e+02 2.532387695312500000e+02 2.534439086914062500e+02 2.536437072753906250e+02 2.537444000244140625e+02 2.538400878906250000e+02 2.538602905273437500e+02 2.539464569091796875e+02
1.523846435546875000e+02 1.439281463623046875e+02 1.415711212158203125e+02 1.370457763671875000e+02 1.392487030029296875e+02 1.404624328613281250e+02 1.431218566894531250e+02 1.456730346679687500e+02 1.482799377441406250e+02 1.521541595458984375e+02 1.541562957763671875e+02 1.565629882812500000e+02 1.582387847900390625e+02 1.618875427246093750e+02 1.626417083740234375e+02 1.645915374755859375e+02 1.660176086425781250e+02 1.692731170654296875e+02 1.709287719726562500e+02 1.743957824707031250e+02 1.754036102294921875e+02 1.789251708984375000e+02 1.809884490966796875e+02 1.836028747558593750e+02 1.866228942871093750e+02 1.893522796630859375e+02 1.914967041015625000e+02 1.936984710693359375e+02 1.961148834228515625e+02 1.993633117675781250e+02 2.010735778808593750e+02 2.048922271728515625e+02 2.069129943847656250e+02 2.102991333007812500e+02 2.123040008544921875e+02 2.167235870361328125e+02 2.217599487304687500e+02 2.266161193847656250e+02 2.307119293212890625e+02 2.342890319824218750e+02 2.366985473632812500e+02 2.384028320312500000e+02 2.391513519287109375e+02 2.399256439208984375e+02 2.409518432617187500e+02 2.417453613281250000e+02 2.426261138916015625e+02 2.430415496826171875e+02 2.436745300292968750e+02 2.447055206298828125e+02 2.450380401611328125e+02 2.458643341064453125e+02 2.461455078125000000e+02 2.465351562500000000e+02 2.464879913330078125e+02 2.469918975830078125e+02 2.476474761962890625e+02 2.478148193359375000e+02 2.479522705078125000e+02 2.481221771240234375e+02 2.477595367431640625e+02 2.479416809082031250e+02 2.478329620361328125e+02 2.484028778076171875e+02 2.478895263671875000e+02 2.477690124511718750e+02 2.473759918212890625e+02 2.474177398681640625e+02 2.476667480468750000e+02 2.474572143554687500e+02 2.473804321289062500e+02 2.469113769531250000e+02 2.463869171142578125e+02 2.446537475585937500e+02 2.426529846191406250e+02 2.416729125976562500e+02 2.409819793701171875e+02 2.420458984375000000e+02 2.420993499755859375e+02 2.425883941650390625e+02 2.424129486083984375e+02 2.421470947265625000e+02 2.417158813476562500e+02 2.422430114746093750e+02 2.419714355468750000e+02 2.425210113525390625e+02 2.435969543457031250e+02 2.443362121582031250e+02 2.447556762695312500e+02 2.447724304199218750e+02 2.450335540771484375e+02 2.456386871337890625e+02 2.464197998046875000e+02 2.460055236816406250e+02 2.459593658447265625e+02 2.452014007568359375e+02 2.447575836181640625e+02 2.444223327636718750e+02 2.448355102539062500e+02 2.457381286621093750e+02 2.458826141357421875e+02 2.459882965087890625e+02 2.460518646240234375e+02 2.473342132568359375e+02 2.488141479492187500e+02 2.503570404052734375e+02 2.512191619873046875e+02 2.519756774902343750e+02 2.520206298828125000e+02 2.522731781005859375e+02 2.524804992675781250e+02 2.527675323486328125e+02 2.529486541748046875e+02 2.530859985351562500e+02 2.532373046875000000e+02 2.533700408935546875e+02 2.535009765625000000e+02 2.536306304931640625e+02 2.537210693359375000e+02
1.507893829345703125e+02 1.449052429199218750e+02 1.414745483398437500e+02 1.371466827392578125e+02 1.392982635498046875e+02 1.425804443359375000e+02 1.429646148681640625e+02 1.447908172607421875e+02 1.465172271728515625e+02 1.506826171875000000e+02 1.520455627441406250e+02 1.544259643554687500e+02 1.561593017578125000e+02 1.591785583496093750e+02 1.600904083251953125e+02 1.619095153808593750e+02 1.627446899414062500e+02 1.661969451904296875e+02 1.689876708984375000e+02 1.709064025878906250e+02 1.725952758789062500e+02 1.756623535156250000e+02 1.774266357421875000e+02 1.808703918457031250e+02 1.824453582763671875e+02 1.860858612060546875e+02 1.877000579833984375e+02 1.909056701660156250e+02 1.926719665527343750e+02 1.963636474609375000e+02 1.979422149658203125e+02 2.015633087158203125e+02 2.031778869628906250e+02 2.065502166748046875e+02 2.084449920654296875e+02 2.112306823730468750e+02 2.138910217285156250e+02 2.190631561279296875e+02 2.239311676025390625e+02 2.297262115478515625e+02 2.328878326416015625e+02 2.361791534423828125e+02 2.382350311279296875e+02 2.390981750488281250e+02 2.400140228271484375e+02 2.409210510253906250e+02 2.415579528808593750e+02 2.419742584228515625e+02 2.429266815185546875e+02 2.438772888183593750e+02 2.445154724121093750e+02 2.453082580566406250e+02 2.454403381347656250e+02 2.461049194335937500e+02 2.464266357421875000e+02 2.470133972167968750e+02 2.474060363769531250e+02 2.475075836181640625e+02 2.475903625488281250e+02 2.477116851806640625e+02 2.480615081787109375e+02 2.481347351074218750e+02 2.479618072509765625e+02 2.475163726806640625e+02 2.476464538574218750e+02 2.476779785156250000e+02 2.476104736328125000e+02 2.472185821533203125e+02 2.477725067138671875e+02 2.478394165039062500e+02 2.478548736572265625e+02 2.473812103271484375e+02 2.462195434570312500e+02 2.450814056396484375e+02 2.435824584960937500e+02 2.426733093261718750e+02 2.416094665527343750e+02 2.398881378173828125e+02 2.393606719970703125e+02 2.400065460205078125e+02 2.407658538818359375e+02 2.411956481933593750e+02 2.407285614013671875e+02 2.401453552246093750e+02 2.412342681884765625e+02 2.422791748046875000e+02 2.421273956298828125e+02 2.434651336669921875e+02 2.433915863037109375e+02 2.440744323730468750e+02 2.450028839111328125e+02 2.460435333251953125e+02 2.463947296142578125e+02 2.455972595214843750e+02 2.455018463134765625e+02 2.452670135498046875e+02 2.455626831054687500e+02 2.448753662109375000e+02 2.456391601562500000e+02 2.453040161132812500e+02 2.453898010253906250e+02 2.448459014892578125e+02 2.440224304199218750e+02 2.448252258300781250e+02 2.468199157714843750e+02 2.482180023193359375e+02 2.496094818115234375e+02 2.507316894531250000e+02 2.512432250976562500e+02 2.516547698974609375e+02 2.519669952392578125e+02 2.522325897216796875e+02 2.523155975341796875e+02 2.525872955322265625e+02 2.527948303222656250e+02 2.529791564941406250e+02 2.531514892578125000e+02 2.532344055175781250e+02 2.532876281738281250e+02
1.515391387939453125e+02 1.445118560791015625e+02 1.403931732177734375e+02 1.354762573242187500e+02 1.380341949462890625e+02 1.393716430664062500e+02 1.400788421630859375e+02 1.423617248535156250e+02 1.457378540039062500e+02 1.494356079101562500e+02 1.514545898437500000e+02 1.538321380615234375e+02 1.548574523925781250e+02 1.562011718750000000e+02 1.586846160888671875e+02 1.598865661621093750e+02 1.600966949462890625e+02 1.641324462890625000e+02 1.653864593505859375e+02 1.685841522216796875e+02 1.695258636474609375e+02 1.729773864746093750e+02 1.753606109619140625e+02 1.782609405517578125e+02 1.802366333007812500e+02 1.831257934570312500e+02 1.854577178955078125e+02 1.876965484619140625e+02 1.907458343505859375e+02 1.935198516845703125e+02 1.952890777587890625e+02 1.985771942138671875e+02 2.004070434570312500e+02 2.040380859375000000e+02 2.055385742187500000e+02 2.084660034179687500e+02 2.109936676025390625e+02 2.139588775634765625e+02 2.175340118408203125e+02 2.246235198974609375e+02 2.284176330566406250e+02 2.334556579589843750e+02 2.354740295410156250e+02 2.377645263671875000e+02 2.392447357177734375e+02 2.400931396484375000e+02 2.405208587646484375e+02 2.417806396484375000e+02 2.423719177246093750e+02 2.433831939697265625e+02 2.442525177001953125e+02 2.447564544677734375e+02 2.452074279785156250e+02 2.457108764648437500e+02 2.461320037841796875e+02 2.465240325927734375e+02 2.469681091308593750e+02 2.471144256591796875e+02 2.473594665527343750e+02 2.476692199707031250e+02 2.475382537841796875e+02 2.479281768798828125e+02 2.476230010986328125e+02 2.480204162597656250e+02 2.479408264160156250e+02 2.478488616943359375e+02 2.475549774169921875e+02 2.473929595947265625e+02 2.478295898437500000e+02 2.477530364990234375e+02 2.475848083496093750e+02 2.471366882324218750e+02 2.467586517333984375e+02 2.460105895996093750e+02 2.445881347656250000e+02 2.433271789550781250e+02 2.424247741699218750e+02 2.408289947509765625e+02 2.412883911132812500e+02 2.416533813476562500e+02 2.412026214599609375e+02 2.407306060791015625e+02 2.399589233398437500e+02 2.413944244384765625e+02 2.408586730957031250e+02 2.409377136230468750e+02 2.410549316406250000e+02 2.428125305175781250e+02 2.432970275878906250e+02 2.443932342529296875e+02 2.440090332031250000e+02 2.450034027099609375e+02 2.452638549804687500e+02 2.455979156494140625e+02 2.453778381347656250e+02 2.451891021728515625e+02 2.450909881591796875e+02 2.445288696289062500e+02 2.449504394531250000e+02 2.448074951171875000e+02 2.452590637207031250e+02 2.447579345703125000e+02 2.441739959716796875e+02 2.442746887207031250e+02 2.452903900146484375e+02 2.463693542480468750e+02 2.482344818115234375e+02 2.496235961914062500e+02 2.505913543701171875e+02 2.513276672363281250e+02 2.516343994140625000e+02 2.519134826660156250e+02 2.521460418701171875e+02 2.523992004394531250e+02 2.524938201904296875e+02 2.525989074707031250e+02 2.526845245361328125e+02 2.527448425292968750e+02 2.529292144775390625e+02
1.510373992919921875e+02 1.452845153808593750e+02 1.421348876953125000e+02 1.377223815917968750e+02 1.381083068847656250e+02 1.400027008056640625e+02 1.406823883056640625e+02 1.436375122070312500e+02 1.445139465332031250e+02 1.469129943847656250e+02 1.490889892578125000e+02 1.516315002441406250e+02 1.511866607666015625e+02 1.529020233154296875e+02 1.552176513671875000e+02 1.571813507080078125e+02 1.572264556884765625e+02 1.589801330566406250e+02 1.628719940185546875e+02 1.649296875000000000e+02 1.665819549560546875e+02 1.699709930419921875e+02 1.714418182373046875e+02 1.751202697753906250e+02 1.767335357666015625e+02 1.802448272705078125e+02 1.816802978515625000e+02 1.853801422119140625e+02 1.874449005126953125e+02 1.906766967773437500e+02 1.927539367675781250e+02 1.955702209472656250e+02 1.972539978027343750e+02 2.006143951416015625e+02 2.017321014404296875e+02 2.051716156005859375e+02 2.065226593017578125e+02 2.100384216308593750e+02 2.121312866210937500e+02 2.173187408447265625e+02 2.228028564453125000e+02 2.282730712890625000e+02 2.319749755859375000e+02 2.350816497802734375e+02 2.373456878662109375e+02 2.392079620361328125e+02 2.399677124023437500e+02 2.408639831542968750e+02 2.413490142822265625e+02 2.428080902099609375e+02 2.429891052246093750e+02 2.438753051757812500e+02 2.440460968017578125e+02 2.451882171630859375e+02 2.457638092041015625e+02 2.458776550292968750e+02 2.462754058837890625e+02 2.465943145751953125e+02 2.468202972412109375e+02 2.468915557861328125e+02 2.468915100097656250e+02 2.474756164550781250e+02 2.474870758056640625e+02 2.476466674804687500e+02 2.474327697753906250e+02 2.473385772705078125e+02 2.472558288574218750e+02 2.472894439697265625e+02 2.474666900634765625e+02 2.474688720703125000e+02 2.473913269042968750e+02 2.473393859863281250e+02 2.470902099609375000e+02 2.460307617187500000e+02 2.447849273681640625e+02 2.437772674560546875e+02 2.430505676269531250e+02 2.415426177978515625e+02 2.405047454833984375e+02 2.387209167480468750e+02 2.387649078369140625e+02 2.385232543945312500e+02 2.392805023193359375e+02 2.400990447998046875e+02 2.402585601806640625e+02 2.403932037353515625e+02 2.409198608398437500e+02 2.418368225097656250e+02 2.429253997802734375e+02 2.435172729492187500e+02 2.428749847412109375e+02 2.443028411865234375e+02 2.449534606933593750e+02 2.449917755126953125e+02 2.451949615478515625e+02 2.449015502929687500e+02 2.454482879638671875e+02 2.445796203613281250e+02 2.449303894042968750e+02 2.448094177246093750e+02 2.449960479736328125e+02 2.445774078369140625e+02 2.435281219482421875e+02 2.454630584716796875e+02 2.455689239501953125e+02 2.447387084960937500e+02 2.464884185791015625e+02 2.475184326171875000e+02 2.491473541259765625e+02 2.499472351074218750e+02 2.506149444580078125e+02 2.512053527832031250e+02 2.514418487548828125e+02 2.517664794921875000e+02 2.517647247314453125e+02 2.519906616210937500e+02 2.520402832031250000e+02 2.522849273681640625e+02 2.523343505859375000e+02
1.509442291259765625e+02 1.449117584228515625e+02 1.433055114746093750e+02 1.364998779296875000e+02 1.385825195312500000e+02 1.408987579345703125e+02 1.418315582275390625e+02 1.436132812500000000e+02 1.447866973876953125e+02 1.479812774658203125e+02 1.497212066650390625e+02 1.504453735351562500e+02 1.502458953857421875e+02 1.510030212402343750e+02 1.526293640136718750e+02 1.536212463378906250e+02 1.525754089355468750e+02 1.558348083496093750e+02 1.587973937988281250e+02 1.619856567382812500e+02 1.635846862792968750e+02 1.660090179443359375e+02 1.691999664306640625e+02 1.723113403320312500e+02 1.741103210449218750e+02 1.769382629394531250e+02 1.792709655761718750e+02 1.828629760742187500e+02 1.846756591796875000e+02 1.879613647460937500e+02 1.900402374267578125e+02 1.930606231689453125e+02 1.947394409179687500e+02 1.978902587890625000e+02 1.996411590576171875e+02 2.022035522460937500e+02 2.037935180664062500e+02 2.076439208984375000e+02 2.094928588867187500e+02 2.133694610595703125e+02 2.164113769531250000e+02 2.227454376220703125e+02 2.275456848144531250e+02 2.320492858886718750e+02 2.351741790771484375e+02 2.380368499755859375e+02 2.392942047119140625e+02 2.406836090087890625e+02 2.414620513916015625e+02 2.418162689208984375e+02 2.430494995117187500e+02 2.438871917724609375e+02 2.436583404541015625e+02 2.443381805419921875e+02 2.446623687744140625e+02 2.454699859619140625e+02 2.458432159423828125e+02 2.465016937255859375e+02 2.463231811523437500e+02 2.466951293945312500e+02 2.469027557373046875e+02 2.470860595703125000e+02 2.471708068847656250e+02 2.472550964355468750e+02 2.472591552734375000e+02 2.471475677490234375e+02 2.471909332275390625e+02 2.471146850585937500e+02 2.472397613525390625e+02 2.472601013183593750e+02 2.472022094726562500e+02 2.469027557373046875e+02 2.466160583496093750e+02 2.465485687255859375e+02 2.459141845703125000e+02 2.446121368408203125e+02 2.439621582031250000e+02 2.420912322998046875e+02 2.407605590820312500e+02 2.392937011718750000e+02 2.398775482177734375e+02 2.402873840332031250e+02 2.397280273437500000e+02 2.396664276123046875e+02 2.396873931884765625e+02 2.405411834716796875e+02 2.401325836181640625e+02 2.410099792480468750e+02 2.430845336914062500e+02 2.433134155273437500e+02 2.433623809814453125e+02 2.445093994140625000e+02 2.443139038085937500e+02 2.442238616943359375e+02 2.446473388671875000e+02 2.449449157714843750e+02 2.453768920898437500e+02 2.445864562988281250e+02 2.450849456787109375e+02 2.439344787597656250e+02 2.453049621582031250e+02 2.443374481201171875e+02 2.448294067382812500e+02 2.445389251708984375e+02 2.442776031494140625e+02 2.445168304443359375e+02 2.450917358398437500e+02 2.462947998046875000e+02 2.467444305419921875e+02 2.479306640625000000e+02 2.491595306396484375e+02 2.503086090087890625e+02 2.508447723388671875e+02 2.511674346923828125e+02 2.513471527099609375e+02 2.515564270019531250e+02 2.516091461181640625e+02 2.516443481445312500e+02 2.516784362792968750e+02
1.494406890869140625e+02 1.457779235839843750e+02 1.427335205078125000e+02 1.390270843505859375e+02 1.401595306396484375e+02 1.405924835205078125e+02 1.417207641601562500e+02 1.433528900146484375e+02 1.441934204101562500e+02 1.474004821777343750e+02 1.483091430664062500e+02 1.498190460205078125e+02 1.503054046630859375e+02 1.508178253173828125e+02 1.509282073974609375e+02 1.513047790527343750e+02 1.523052520751953125e+02 1.535075225830078125e+02 1.558779144287109375e+02 1.578874053955078125e+02 1.598869934082031250e+02 1.626137695312500000e+02 1.653014984130859375e+02 1.678736267089843750e+02 1.700962066650390625e+02 1.729062500000000000e+02 1.759457092285156250e+02 1.796321563720703125e+02 1.822586364746093750e+02 1.847027893066406250e+02 1.872305755615234375e+02 1.899194183349609375e+02 1.917241363525390625e+02 1.945832977294921875e+02 1.961697082519531250e+02 1.983896484375000000e+02 2.002453765869140625e+02 2.038139953613281250e+02 2.056920166015625000e+02 2.088204803466796875e+02 2.114018554687500000e+02 2.157450103759765625e+02 2.210783996582031250e+02 2.275968780517578125e+02 2.311022949218750000e+02 2.354223022460937500e+02 2.379494018554687500e+02 2.396710510253906250e+02 2.404075164794921875e+02 2.414673004150390625e+02 2.421955413818359375e+02 2.423577423095703125e+02 2.430991058349609375e+02 2.437096099853515625e+02 2.441758422851562500e+02 2.448890991210937500e+02 2.452070007324218750e+02 2.457603149414062500e+02 2.458309936523437500e+02 2.464013519287109375e+02 2.463755645751953125e+02 2.468415374755859375e+02 2.468827056884765625e+02 2.473305053710937500e+02 2.469260253906250000e+02 2.470620880126953125e+02 2.468436584472656250e+02 2.470072784423828125e+02 2.467388305664062500e+02 2.467121429443359375e+02 2.466647644042968750e+02 2.467993316650390625e+02 2.467754516601562500e+02 2.464256591796875000e+02 2.460351257324218750e+02 2.448684997558593750e+02 2.445311889648437500e+02 2.429206542968750000e+02 2.419284973144531250e+02 2.394013977050781250e+02 2.385027465820312500e+02 2.382175140380859375e+02 2.384381866455078125e+02 2.387246398925781250e+02 2.386007995605468750e+02 2.397850494384765625e+02 2.397394256591796875e+02 2.407350921630859375e+02 2.419998779296875000e+02 2.432187957763671875e+02 2.433896789550781250e+02 2.444168701171875000e+02 2.446070098876953125e+02 2.446146087646484375e+02 2.449621429443359375e+02 2.444616241455078125e+02 2.452946624755859375e+02 2.447243652343750000e+02 2.447970581054687500e+02 2.449378662109375000e+02 2.450430450439453125e+02 2.444154510498046875e+02 2.445311889648437500e+02 2.450510711669921875e+02 2.451988830566406250e+02 2.449973907470703125e+02 2.455130920410156250e+02 2.449894409179687500e+02 2.436459045410156250e+02 2.448848571777343750e+02 2.459528350830078125e+02 2.479316558837890625e+02 2.491081848144531250e+02 2.499581298828125000e+02 2.500961914062500000e+02 2.502881774902343750e+02 2.504081726074218750e+02 2.508554840087890625e+02 2.507346801757812500e+02
1.514273071289062500e+02 1.440888366699218750e+02 1.436759338378906250e+02 1.392334899902343750e+02 1.395023498535156250e+02 1.409359893798828125e+02 1.423478393554687500e+02 1.457379913330078125e+02 1.465578002929687500e+02 1.469747009277343750e+02 1.480382080078125000e+02 1.500877227783203125e+02 1.497541503906250000e+02 1.500699005126953125e+02 1.503584136962890625e+02 1.516866455078125000e+02 1.512402801513671875e+02 1.522769470214843750e+02 1.533007354736328125e+02 1.559858245849609375e+02 1.580442199707031250e+02 1.604831695556640625e+02 1.625974426269531250e+02 1.658917236328125000e+02 1.674546203613281250e+02 1.708991851806640625e+02 1.729388275146484375e+02 1.771508178710937500e+02 1.788587188720703125e+02 1.824141693115234375e+02 1.842873687744140625e+02 1.878044738769531250e+02 1.886706085205078125e+02 1.915946044921875000e+02 1.930260620117187500e+02 1.960514831542968750e+02 1.973846740722656250e+02 2.007419128417968750e+02 2.026662445068359375e+02 2.064463958740234375e+02 2.091235809326171875e+02 2.127992553710937500e+02 2.157123718261718750e+02 2.226809234619140625e+02 2.275202178955078125e+02 2.330492706298828125e+02 2.361137084960937500e+02 2.389915008544921875e+02 2.404389648437500000e+02 2.410891418457031250e+02 2.416370697021484375e+02 2.426191101074218750e+02 2.428763275146484375e+02 2.433686523437500000e+02 2.434823303222656250e+02 2.442758026123046875e+02 2.449635772705078125e+02 2.455933227539062500e+02 2.455338592529296875e+02 2.457241210937500000e+02 2.460714721679687500e+02 2.466166229248046875e+02 2.467215881347656250e+02 2.469302215576171875e+02 2.471321563720703125e+02 2.470529937744140625e+02 2.470220642089843750e+02 2.470638580322265625e+02 2.469111175537109375e+02 2.469579010009765625e+02 2.465780792236328125e+02 2.465469360351562500e+02 2.464656829833984375e+02 2.463948211669921875e+02 2.459778289794921875e+02 2.451718902587890625e+02 2.449693145751953125e+02 2.435571441650390625e+02 2.424629211425781250e+02 2.403911590576171875e+02 2.386654663085937500e+02 2.374707336425781250e+02 2.367650451660156250e+02 2.369332275390625000e+02 2.379843902587890625e+02 2.386006164550781250e+02 2.387333068847656250e+02 2.397328186035156250e+02 2.413397521972656250e+02 2.418011932373046875e+02 2.423036651611328125e+02 2.434854888916015625e+02 2.443292846679687500e+02 2.450518035888671875e+02 2.442033996582031250e+02 2.453173370361328125e+02 2.448453369140625000e+02 2.445437316894531250e+02 2.448106079101562500e+02 2.447702026367187500e+02 2.454722137451171875e+02 2.444901275634765625e+02 2.454237213134765625e+02 2.453793334960937500e+02 2.455476379394531250e+02 2.442445678710937500e+02 2.436514739990234375e+02 2.431051177978515625e+02 2.439599761962890625e+02 2.450850372314453125e+02 2.450386505126953125e+02 2.455233917236328125e+02 2.463291931152343750e+02 2.479479217529296875e+02 2.482381134033203125e+02 2.497104797363281250e+02 2.496976776123046875e+02 2.499872131347656250e+02 2.501184234619140625e+02
1.507944946289062500e+02 1.458196563720703125e+02 1.435848846435546875e+02 1.391539154052734375e+02 1.403960418701171875e+02 1.410717926025390625e+02 1.423686370849609375e+02 1.442515716552734375e+02 1.453355255126953125e+02 1.461025848388671875e+02 1.464004974365234375e+02 1.481997680664062500e+02 1.484718475341796875e+02 1.488111572265625000e+02 1.494077606201171875e+02 1.489579620361328125e+02 1.504853210449218750e+02 1.509635620117187500e+02 1.514590606689453125e+02 1.537271118164062500e+02 1.561879882812500000e+02 1.578201751708984375e+02 1.601956939697265625e+02 1.627533874511718750e+02 1.655353698730468750e+02 1.682009124755859375e+02 1.703896789550781250e+02 1.743163757324218750e+02 1.768505859375000000e+02 1.794717407226562500e+02 1.818137054443359375e+02 1.838822326660156250e+02 1.857596130371093750e+02 1.885224456787109375e+02 1.903071289062500000e+02 1.934699859619140625e+02 1.948432159423828125e+02 1.972003936767578125e+02 1.991278839111328125e+02 2.029179534912109375e+02 2.049752349853515625e+02 2.092572479248046875e+02 2.115775604248046875e+02 2.168369140625000000e+02 2.209936523437500000e+02 2.279996185302734375e+02 2.330041656494140625e+02 2.374144744873046875e+02 2.394951171875000000e+02 2.403667755126953125e+02 2.411326446533203125e+02 2.416412506103515625e+02 2.422967071533203125e+02 2.429855499267578125e+02 2.432962036132812500e+02 2.439972839355468750e+02 2.439416046142578125e+02 2.444898223876953125e+02 2.449725952148437500e+02 2.456392822265625000e+02 2.457308654785156250e+02 2.457998199462890625e+02 2.462895660400390625e+02 2.465329284667968750e+02 2.464344177246093750e+02 2.463745269775390625e+02 2.465358734130859375e+02 2.466201629638671875e+02 2.464360046386718750e+02 2.462855834960937500e+02 2.465068664550781250e+02 2.465478363037109375e+02 2.468526916503906250e+02 2.463578186035156250e+02 2.456938323974609375e+02 2.449690093994140625e+02 2.447311553955078125e+02 2.432033386230468750e+02 2.422193908691406250e+02 2.400970306396484375e+02 2.385373077392578125e+02 2.358701629638671875e+02 2.347234802246093750e+02 2.360222778320312500e+02 2.361653594970703125e+02 2.373854675292968750e+02 2.354359588623046875e+02 2.394345397949218750e+02 2.394178009033203125e+02 2.409586486816406250e+02 2.412039489746093750e+02 2.416820220947265625e+02 2.426040649414062500e+02 2.434253540039062500e+02 2.436501007080078125e+02 2.439047088623046875e+02 2.447185363769531250e+02 2.442805023193359375e+02 2.443849029541015625e+02 2.447583160400390625e+02 2.449244995117187500e+02 2.452965850830078125e+02 2.457724914550781250e+02 2.450552673339843750e+02 2.456637878417968750e+02 2.451320343017578125e+02 2.450092163085937500e+02 2.442953643798828125e+02 2.440981750488281250e+02 2.442361602783203125e+02 2.431694488525390625e+02 2.435382995605468750e+02 2.444749603271484375e+02 2.461872406005859375e+02 2.471635894775390625e+02 2.473935546875000000e+02 2.472616424560546875e+02 2.478746948242187500e+02 2.480267791748046875e+02
1.501189575195312500e+02 1.437958679199218750e+02 1.417038116455078125e+02 1.379033813476562500e+02 1.401580657958984375e+02 1.404430389404296875e+02 1.406137847900390625e+02 1.429991302490234375e+02 1.456231842041015625e+02 1.464542388916015625e+02 1.465316009521484375e+02 1.479040527343750000e+02 1.473199920654296875e+02 1.486416015625000000e+02 1.478176116943359375e+02 1.478504486083984375e+02 1.499495849609375000e+02 1.496402435302734375e+02 1.497192840576171875e+02 1.532577819824218750e+02 1.535084228515625000e+02 1.578605804443359375e+02 1.589927368164062500e+02 1.620046844482421875e+02 1.635757598876953125e+02 1.662779998779296875e+02 1.678511810302734375e+02 1.716838226318359375e+02 1.742205200195312500e+02 1.777408752441406250e+02 1.792482757568359375e+02 1.822565307617187500e+02 1.844603118896484375e+02 1.876076507568359375e+02 1.888292236328125000e+02 1.914055786132812500e+02 1.923583984375000000e+02 1.957073822021484375e+02 1.976470184326171875e+02 2.007108612060546875e+02 2.023769836425781250e+02 2.069278564453125000e+02 2.095961456298828125e+02 2.138069610595703125e+02 2.175722045898437500e+02 2.245533294677734375e+02 2.301911315917968750e+02 2.352573089599609375e+02 2.381078796386718750e+02 2.396879119873046875e+02 2.407470550537109375e+02 2.417163085937500000e+02 2.422944335937500000e+02 2.429977264404296875e+02 2.430472869873046875e+02 2.435670928955078125e+02 2.439186248779296875e+02 2.444512176513671875e+02 2.448291931152343750e+02 2.448571777343750000e+02 2.455867767333984375e+02 2.461493072509765625e+02 2.462412872314453125e+02 2.464087829589843750e+02 2.464245452880859375e+02 2.467362365722656250e+02 2.467053833007812500e+02 2.465550994873046875e+02 2.462341918945312500e+02 2.463239898681640625e+02 2.462309570312500000e+02 2.460203857421875000e+02 2.460021820068359375e+02 2.457111663818359375e+02 2.455870361328125000e+02 2.449992980957031250e+02 2.448159027099609375e+02 2.442372283935546875e+02 2.428492736816406250e+02 2.414947662353515625e+02 2.391442260742187500e+02 2.370233306884765625e+02 2.342624664306640625e+02 2.337621307373046875e+02 2.333354492187500000e+02 2.342855377197265625e+02 2.351038970947265625e+02 2.381233978271484375e+02 2.392030487060546875e+02 2.405740051269531250e+02 2.403945465087890625e+02 2.407293243408203125e+02 2.413409271240234375e+02 2.426743011474609375e+02 2.432999267578125000e+02 2.432280578613281250e+02 2.436186065673828125e+02 2.431938018798828125e+02 2.436653442382812500e+02 2.445090026855468750e+02 2.448489685058593750e+02 2.450323333740234375e+02 2.456729431152343750e+02 2.454211578369140625e+02 2.460684814453125000e+02 2.451949615478515625e+02 2.455180511474609375e+02 2.436106262207031250e+02 2.431168212890625000e+02 2.418848114013671875e+02 2.431110229492187500e+02 2.444614562988281250e+02 2.432503662109375000e+02 2.438902587890625000e+02 2.414796600341796875e+02 2.425548858642578125e+02 2.446131896972656250e+02 2.464421844482421875e+02 2.466908111572265625e+02
1.511676940917968750e+02 1.440446777343750000e+02 1.412820587158203125e+02 1.376651916503906250e+02 1.393325347900390625e+02 1.383880767822265625e+02 1.393746337890625000e+02 1.421028747558593750e+02 1.448083953857421875e+02 1.456709289550781250e+02 1.469593505859375000e+02 1.473688964843750000e+02 1.472339172363281250e+02 1.474505767822265625e+02 1.460161285400390625e+02 1.462771759033203125e+02 1.481653594970703125e+02 1.473446655273437500e+02 1.495147552490234375e+02 1.501303863525390625e+02 1.518397827148437500e+02 1.533304901123046875e+02 1.542658691406250000e+02 1.579609069824218750e+02 1.592989807128906250e+02 1.627390136718750000e+02 1.646460418701171875e+02 1.691521301269531250e+02 1.720647125244140625e+02 1.744521331787109375e+02 1.765087280273437500e+02 1.794133453369140625e+02 1.810384368896484375e+02 1.839242706298828125e+02 1.856417846679687500e+02 1.890178375244140625e+02 1.907602233886718750e+02 1.939028320312500000e+02 1.951705322265625000e+02 1.981549835205078125e+02 1.996272735595703125e+02 2.037622070312500000e+02 2.064215393066406250e+02 2.108034057617187500e+02 2.132594146728515625e+02 2.187259826660156250e+02 2.254314575195312500e+02 2.321431884765625000e+02 2.357907104492187500e+02 2.385812225341796875e+02 2.399018859863281250e+02 2.410128936767578125e+02 2.412636108398437500e+02 2.424035339355468750e+02 2.427499084472656250e+02 2.433872528076171875e+02 2.434609375000000000e+02 2.436016387939453125e+02 2.441524353027343750e+02 2.447491760253906250e+02 2.452845764160156250e+02 2.455628967285156250e+02 2.455756683349609375e+02 2.458740539550781250e+02 2.463148040771484375e+02 2.465047302246093750e+02 2.463438110351562500e+02 2.462179565429687500e+02 2.460062408447265625e+02 2.459309692382812500e+02 2.459336547851562500e+02 2.460041046142578125e+02 2.464109191894531250e+02 2.461480712890625000e+02 2.456671447753906250e+02 2.447716522216796875e+02 2.443460845947265625e+02 2.429456481933593750e+02 2.418182067871093750e+02 2.412230377197265625e+02 2.408946838378906250e+02 2.377948913574218750e+02 2.341574707031250000e+02 2.318490295410156250e+02 2.327830505371093750e+02 2.352725982666015625e+02 2.349241943359375000e+02 2.354499664306640625e+02 2.357866058349609375e+02 2.382758636474609375e+02 2.383163604736328125e+02 2.407713623046875000e+02 2.409891510009765625e+02 2.421262207031250000e+02 2.416175842285156250e+02 2.419586181640625000e+02 2.423355407714843750e+02 2.431764221191406250e+02 2.433284301757812500e+02 2.440240631103515625e+02 2.441325683593750000e+02 2.446800537109375000e+02 2.451996612548828125e+02 2.455953216552734375e+02 2.459160156250000000e+02 2.456429595947265625e+02 2.451697082519531250e+02 2.455371856689453125e+02 2.453764190673828125e+02 2.452895355224609375e+02 2.443641052246093750e+02 2.433862152099609375e+02 2.432471313476562500e+02 2.423778228759765625e+02 2.416531372070312500e+02 2.412997131347656250e+02 2.430638580322265625e+02 2.425039825439453125e+02 2.418916778564453125e+02
1.500347900390625000e+02 1.421465148925781250e+02 1.397740783691406250e+02 1.363014221191406250e+02 1.382863922119140625e+02 1.387957000732421875e+02 1.390015716552734375e+02 1.410534667968750000e+02 1.429206695556640625e+02 1.444573364257812500e+02 1.452354431152343750e+02 1.464006958007812500e+02 1.457870941162109375e+02 1.463824310302734375e+02 1.460457916259765625e+02 1.461293029785156250e+02 1.464415435791015625e+02 1.474777832031250000e+02 1.474877624511718750e+02 1.481904907226562500e+02 1.490934906005859375e+02 1.518665313720703125e+02 1.537098999023437500e+02 1.564052429199218750e+02 1.582920532226562500e+02 1.613506469726562500e+02 1.633190460205078125e+02 1.670011901855468750e+02 1.691307373046875000e+02 1.718383178710937500e+02 1.736336059570312500e+02 1.760452423095703125e+02 1.776960754394531250e+02 1.813232879638671875e+02 1.834519042968750000e+02 1.870066070556640625e+02 1.888482208251953125e+02 1.917916870117187500e+02 1.933465728759765625e+02 1.965895080566406250e+02 1.976693115234375000e+02 2.008921508789062500e+02 2.038321380615234375e+02 2.082044372558593750e+02 2.108023376464843750e+02 2.156593170166015625e+02 2.208389282226562500e+02 2.297189941406250000e+02 2.335599822998046875e+02 2.374335784912109375e+02 2.389726562500000000e+02 2.403014984130859375e+02 2.417574005126953125e+02 2.421777191162109375e+02 2.427055358886718750e+02 2.429572296142578125e+02 2.431382446289062500e+02 2.435957946777343750e+02 2.437380981445312500e+02 2.442389068603515625e+02 2.447083435058593750e+02 2.452068328857421875e+02 2.455006866455078125e+02 2.459442901611328125e+02 2.460776672363281250e+02 2.460103302001953125e+02 2.462853698730468750e+02 2.463271484375000000e+02 2.458736114501953125e+02 2.459800567626953125e+02 2.459217376708984375e+02 2.461409759521484375e+02 2.460255889892578125e+02 2.455963439941406250e+02 2.451526184082031250e+02 2.451181030273437500e+02 2.447268829345703125e+02 2.440632781982421875e+02 2.433778381347656250e+02 2.421102294921875000e+02 2.405276336669921875e+02 2.378632354736328125e+02 2.345321044921875000e+02 2.340169982910156250e+02 2.334895782470703125e+02 2.341099548339843750e+02 2.337990417480468750e+02 2.354782104492187500e+02 2.365702514648437500e+02 2.378638763427734375e+02 2.376935119628906250e+02 2.385280761718750000e+02 2.391964263916015625e+02 2.407791748046875000e+02 2.417071685791015625e+02 2.432489624023437500e+02 2.432516021728515625e+02 2.426797637939453125e+02 2.422553863525390625e+02 2.428621673583984375e+02 2.439385833740234375e+02 2.446701049804687500e+02 2.453393096923828125e+02 2.454893798828125000e+02 2.460770721435546875e+02 2.452784271240234375e+02 2.461154327392578125e+02 2.449836578369140625e+02 2.455233001708984375e+02 2.446016693115234375e+02 2.447037200927734375e+02 2.440998840332031250e+02 2.421465301513671875e+02 2.434971923828125000e+02 2.426197509765625000e+02 2.419506835937500000e+02 2.401596221923828125e+02 2.391262817382812500e+02 2.390732574462890625e+02
1.508621063232421875e+02 1.437839508056640625e+02 1.401977996826171875e+02 1.357136230468750000e+02 1.373034515380859375e+02 1.380280303955078125e+02 1.370558471679687500e+02 1.385518951416015625e+02 1.416077270507812500e+02 1.439000701904296875e+02 1.448871154785156250e+02 1.455825195312500000e+02 1.446875305175781250e+02 1.459422149658203125e+02 1.457720184326171875e+02 1.448200225830078125e+02 1.458927001953125000e+02 1.462421875000000000e+02 1.471193084716796875e+02 1.478329925537109375e+02 1.486069641113281250e+02 1.500630798339843750e+02 1.515000762939453125e+02 1.542228546142578125e+02 1.551674804687500000e+02 1.579459838867187500e+02 1.599967956542968750e+02 1.642137908935546875e+02 1.666758880615234375e+02 1.694255676269531250e+02 1.716842651367187500e+02 1.733846130371093750e+02 1.751866302490234375e+02 1.783975830078125000e+02 1.802488555908203125e+02 1.837581634521484375e+02 1.856913146972656250e+02 1.894753417968750000e+02 1.910118408203125000e+02 1.936118774414062500e+02 1.951408386230468750e+02 1.985796661376953125e+02 2.008635253906250000e+02 2.053044281005859375e+02 2.075312194824218750e+02 2.118441314697265625e+02 2.157199249267578125e+02 2.239034729003906250e+02 2.292889862060546875e+02 2.342773284912109375e+02 2.369117889404296875e+02 2.393135528564453125e+02 2.405446014404296875e+02 2.413993377685546875e+02 2.419573364257812500e+02 2.426584930419921875e+02 2.431250762939453125e+02 2.430059814453125000e+02 2.436721343994140625e+02 2.442990875244140625e+02 2.445762023925781250e+02 2.444289550781250000e+02 2.446343994140625000e+02 2.449574432373046875e+02 2.455253906250000000e+02 2.457761993408203125e+02 2.460136413574218750e+02 2.459527587890625000e+02 2.457660675048828125e+02 2.459927062988281250e+02 2.456777801513671875e+02 2.457012329101562500e+02 2.456069793701171875e+02 2.453308868408203125e+02 2.453484802246093750e+02 2.448847808837890625e+02 2.447481079101562500e+02 2.440382843017578125e+02 2.430237426757812500e+02 2.415946044921875000e+02 2.404071655273437500e+02 2.384771881103515625e+02 2.358682403564453125e+02 2.348354492187500000e+02 2.322688293457031250e+02 2.330766906738281250e+02 2.334632263183593750e+02 2.354683990478515625e+02 2.352736816406250000e+02 2.354333190917968750e+02 2.356943359375000000e+02 2.373485870361328125e+02 2.390992889404296875e+02 2.395929565429687500e+02 2.402861633300781250e+02 2.410585632324218750e+02 2.411044006347656250e+02 2.424709167480468750e+02 2.437382202148437500e+02 2.443403167724609375e+02 2.446467437744140625e+02 2.443084869384765625e+02 2.444691925048828125e+02 2.448827209472656250e+02 2.449942626953125000e+02 2.452895050048828125e+02 2.454442749023437500e+02 2.458245544433593750e+02 2.457938385009765625e+02 2.457722320556640625e+02 2.457506866455078125e+02 2.450218505859375000e+02 2.450922088623046875e+02 2.437058868408203125e+02 2.438429260253906250e+02 2.419265747070312500e+02 2.418136749267578125e+02 2.408090820312500000e+02 2.410370483398437500e+02
1.511813964843750000e+02 1.432260894775390625e+02 1.392666473388671875e+02 1.350227355957031250e+02 1.362050476074218750e+02 1.378614959716796875e+02 1.370117187500000000e+02 1.386448059082031250e+02 1.402376556396484375e+02 1.423415069580078125e+02 1.419613952636718750e+02 1.432741546630859375e+02 1.434461059570312500e+02 1.446332550048828125e+02 1.455961608886718750e+02 1.443136291503906250e+02 1.439338989257812500e+02 1.449719696044921875e+02 1.448143615722656250e+02 1.461531829833984375e+02 1.469660644531250000e+02 1.479777221679687500e+02 1.504191436767578125e+02 1.517760772705078125e+02 1.531844940185546875e+02 1.554035491943359375e+02 1.577232360839843750e+02 1.622740631103515625e+02 1.646317443847656250e+02 1.675370330810546875e+02 1.690272216796875000e+02 1.717495727539062500e+02 1.744035186767578125e+02 1.763540649414062500e+02 1.784907684326171875e+02 1.810933227539062500e+02 1.839370269775390625e+02 1.873614654541015625e+02 1.891230010986328125e+02 1.913066406250000000e+02 1.937125091552734375e+02 1.967631530761718750e+02 1.983804626464843750e+02 2.027095642089843750e+02 2.054125518798828125e+02 2.094618377685546875e+02 2.119442291259765625e+02 2.185401763916015625e+02 2.251477203369140625e+02 2.312205352783203125e+02 2.354560852050781250e+02 2.377406768798828125e+02 2.394481658935546875e+02 2.406118011474609375e+02 2.414306030273437500e+02 2.427224731445312500e+02 2.424472045898437500e+02 2.432032928466796875e+02 2.430328521728515625e+02 2.435438079833984375e+02 2.437063140869140625e+02 2.444486083984375000e+02 2.447702026367187500e+02 2.447795562744140625e+02 2.447335968017578125e+02 2.448343658447265625e+02 2.454149932861328125e+02 2.456510772705078125e+02 2.455749816894531250e+02 2.454151763916015625e+02 2.455429840087890625e+02 2.458184051513671875e+02 2.456922454833984375e+02 2.452795410156250000e+02 2.449527740478515625e+02 2.447448272705078125e+02 2.444550933837890625e+02 2.438402862548828125e+02 2.428327026367187500e+02 2.425168304443359375e+02 2.417773590087890625e+02 2.396243133544921875e+02 2.364466552734375000e+02 2.343623046875000000e+02 2.328328094482421875e+02 2.331630249023437500e+02 2.315572204589843750e+02 2.340615539550781250e+02 2.340176849365234375e+02 2.360981140136718750e+02 2.348360595703125000e+02 2.381440734863281250e+02 2.380970001220703125e+02 2.392394561767578125e+02 2.392504272460937500e+02 2.403320007324218750e+02 2.412250366210937500e+02 2.423984222412109375e+02 2.420475158691406250e+02 2.427040252685546875e+02 2.430406646728515625e+02 2.444260101318359375e+02 2.452087097167968750e+02 2.452302398681640625e+02 2.457663726806640625e+02 2.456810607910156250e+02 2.459261016845703125e+02 2.453668212890625000e+02 2.454809112548828125e+02 2.452935638427734375e+02 2.453487854003906250e+02 2.454042816162109375e+02 2.443991241455078125e+02 2.441836547851562500e+02 2.424898376464843750e+02 2.423645782470703125e+02 2.419573822021484375e+02 2.405545196533203125e+02 2.392301330566406250e+02
