2.540498199462890625e+02 2.541704559326171875e+02 2.542440948486328125e+02 2.543537902832031250e+02 2.544095916748046875e+02 2.544863128662109375e+02 2.544904785156250000e+02 2.546493682861328125e+02 2.546546173095703125e+02 2.545212860107421875e+02 2.545116119384765625e+02 2.544313964843750000e+02 2.542525482177734375e+02 2.539577636718750000e+02 2.539665374755859375e+02 2.540189056396484375e+02 2.540920104980468750e+02 2.540802459716796875e+02 2.542488861083984375e+02 2.543694305419921875e+02 2.542245330810546875e+02 2.542719573974609375e+02 2.542196044921875000e+02 2.541394042968750000e+02 2.539630584716796875e+02 2.538082122802734375e+02 2.536104125976562500e+02 2.538433532714843750e+02 2.537037048339843750e+02 2.540948181152343750e+02 2.539235076904296875e+02 2.536098937988281250e+02 2.538574981689453125e+02 2.538296051025390625e+02 2.539962005615234375e+02 2.539251556396484375e+02 2.539491729736328125e+02 2.539595336914062500e+02 2.540022735595703125e+02 2.540922241210937500e+02 2.541539306640625000e+02 2.541380157470703125e+02 2.541588287353515625e+02 2.541588897705078125e+02 2.541312255859375000e+02 2.539852294921875000e+02 2.537955169677734375e+02 2.536587829589843750e+02 2.535221405029296875e+02 2.535592498779296875e+02 2.535997619628906250e+02 2.536091613769531250e+02 2.532846984863281250e+02 2.525605773925781250e+02 2.519139404296875000e+02 2.514163970947265625e+02 2.516924133300781250e+02 2.517103424072265625e+02 2.519152069091796875e+02 2.517579803466796875e+02 2.515476837158203125e+02 2.516385040283203125e+02 2.520599060058593750e+02 2.522501220703125000e+02 2.522477569580078125e+02 2.523166961669921875e+02 2.524050903320312500e+02 2.522063598632812500e+02 2.519374389648437500e+02 2.516452636718750000e+02 2.517353210449218750e+02 2.519581604003906250e+02 2.517588348388671875e+02 2.516540222167968750e+02 2.518420715332031250e+02 2.514755859375000000e+02 2.505788879394531250e+02 2.493210754394531250e+02 2.480296478271484375e+02 2.485271911621093750e+02 2.475650482177734375e+02 2.469269866943359375e+02 2.429325561523437500e+02 2.418134765625000000e+02 2.370825805664062500e+02 2.367921752929687500e+02 2.359959411621093750e+02 2.356500854492187500e+02 2.332925720214843750e+02 2.330123596191406250e+02 2.334845123291015625e+02 2.336097412109375000e+02 2.335928955078125000e+02 2.334883117675781250e+02 2.331306762695312500e+02 2.328229522705078125e+02 2.325848388671875000e+02 2.323195495605468750e+02 2.320592193603515625e+02 2.318915710449218750e+02 2.317131805419921875e+02 2.316001129150390625e+02 2.314666290283203125e+02 2.313855743408203125e+02 2.312978973388671875e+02 2.312164611816406250e+02 2.311075439453125000e+02 2.310288696289062500e+02 2.308856506347656250e+02 2.307562866210937500e+02 2.305686645507812500e+02 2.304163970947265625e+02 2.302003479003906250e+02 2.299638671875000000e+02 2.296739196777343750e+02 2.294599914550781250e+02 2.293054351806640625e+02 2.290997161865234375e+02 2.287788238525390625e+02
2.540594329833984375e+02 2.541713867187500000e+02 2.542562103271484375e+02 2.543635864257812500e+02 2.544072418212890625e+02 2.544919738769531250e+02 2.545258941650390625e+02 2.546653289794921875e+02 2.546208496093750000e+02 2.545481872558593750e+02 2.544397125244140625e+02 2.543782348632812500e+02 2.541560668945312500e+02 2.539906768798828125e+02 2.540373687744140625e+02 2.540757904052734375e+02 2.541314239501953125e+02 2.541313934326171875e+02 2.542869262695312500e+02 2.543597869873046875e+02 2.542089538574218750e+02 2.542535552978515625e+02 2.541799011230468750e+02 2.541309204101562500e+02 2.539922943115234375e+02 2.538305511474609375e+02 2.536535034179687500e+02 2.538465118408203125e+02 2.539049377441406250e+02 2.540671386718750000e+02 2.538216857910156250e+02 2.534890441894531250e+02 2.537511596679687500e+02 2.537310943603515625e+02 2.539833679199218750e+02 2.538909606933593750e+02 2.539205017089843750e+02 2.539308013916015625e+02 2.539657440185546875e+02 2.540806732177734375e+02 2.541396789550781250e+02 2.541266174316406250e+02 2.541313476562500000e+02 2.541724243164062500e+02 2.541481018066406250e+02 2.539281616210937500e+02 2.538776397705078125e+02 2.537584838867187500e+02 2.534116363525390625e+02 2.534445800781250000e+02 2.535416412353515625e+02 2.534648742675781250e+02 2.531033630371093750e+02 2.523705902099609375e+02 2.514232940673828125e+02 2.509499053955078125e+02 2.515388031005859375e+02 2.517485351562500000e+02 2.518086853027343750e+02 2.514963989257812500e+02 2.515402679443359375e+02 2.515303955078125000e+02 2.518049774169921875e+02 2.521215972900390625e+02 2.519883422851562500e+02 2.522790527343750000e+02 2.521647491455078125e+02 2.518420104980468750e+02 2.516549072265625000e+02 2.514184417724609375e+02 2.513336791992187500e+02 2.515480346679687500e+02 2.514128112792968750e+02 2.513725585937500000e+02 2.512283477783203125e+02 2.509278106689453125e+02 2.499306945800781250e+02 2.487224578857421875e+02 2.468652191162109375e+02 2.468930664062500000e+02 2.467798614501953125e+02 2.467368469238281250e+02 2.440935974121093750e+02 2.412114410400390625e+02 2.374980773925781250e+02 2.361626434326171875e+02 2.355125427246093750e+02 2.355637969970703125e+02 2.331074981689453125e+02 2.329495849609375000e+02 2.334299316406250000e+02 2.335683898925781250e+02 2.334859924316406250e+02 2.334223175048828125e+02 2.331006317138671875e+02 2.327900238037109375e+02 2.325454406738281250e+02 2.322864379882812500e+02 2.320259399414062500e+02 2.318636016845703125e+02 2.316901855468750000e+02 2.315767364501953125e+02 2.314450073242187500e+02 2.313626403808593750e+02 2.312818450927734375e+02 2.312019500732421875e+02 2.310953979492187500e+02 2.310186767578125000e+02 2.308767700195312500e+02 2.307459716796875000e+02 2.305592346191406250e+02 2.304067687988281250e+02 2.301906890869140625e+02 2.299548645019531250e+02 2.296666259765625000e+02 2.294557342529296875e+02 2.292989349365234375e+02 2.290912933349609375e+02 2.287687530517578125e+02
2.540545806884765625e+02 2.541662597656250000e+02 2.542447509765625000e+02 2.543597717285156250e+02 2.544211120605468750e+02 2.544792633056640625e+02 2.545221862792968750e+02 2.546692962646484375e+02 2.546246795654296875e+02 2.545578765869140625e+02 2.545052032470703125e+02 2.544102325439453125e+02 2.541395263671875000e+02 2.540440063476562500e+02 2.541372528076171875e+02 2.541606597900390625e+02 2.542007293701171875e+02 2.541920623779296875e+02 2.543073425292968750e+02 2.543486785888671875e+02 2.541956787109375000e+02 2.542149810791015625e+02 2.541507110595703125e+02 2.541142425537109375e+02 2.539584045410156250e+02 2.538377075195312500e+02 2.536488952636718750e+02 2.537973937988281250e+02 2.538824462890625000e+02 2.539325714111328125e+02 2.536744689941406250e+02 2.533498077392578125e+02 2.535994262695312500e+02 2.536021118164062500e+02 2.538928222656250000e+02 2.538001861572265625e+02 2.539067687988281250e+02 2.538770141601562500e+02 2.539257507324218750e+02 2.540397644042968750e+02 2.541176147460937500e+02 2.541157684326171875e+02 2.541090545654296875e+02 2.541396484375000000e+02 2.540725250244140625e+02 2.539123687744140625e+02 2.538191986083984375e+02 2.536488037109375000e+02 2.533286895751953125e+02 2.534508361816406250e+02 2.533426513671875000e+02 2.532480316162109375e+02 2.528182983398437500e+02 2.521268920898437500e+02 2.511241455078125000e+02 2.510432128906250000e+02 2.515891571044921875e+02 2.518230285644531250e+02 2.518799896240234375e+02 2.519544525146484375e+02 2.520110473632812500e+02 2.520037231445312500e+02 2.520483245849609375e+02 2.523022155761718750e+02 2.523453216552734375e+02 2.523949737548828125e+02 2.521308288574218750e+02 2.520187683105468750e+02 2.517294464111328125e+02 2.515317840576171875e+02 2.514525909423828125e+02 2.515957641601562500e+02 2.516915283203125000e+02 2.514336395263671875e+02 2.510978240966796875e+02 2.506307525634765625e+02 2.493125305175781250e+02 2.482177886962890625e+02 2.459137420654296875e+02 2.460977020263671875e+02 2.456801300048828125e+02 2.465654296875000000e+02 2.437191162109375000e+02 2.397686614990234375e+02 2.369427337646484375e+02 2.367392730712890625e+02 2.350929718017578125e+02 2.352555541992187500e+02 2.332774963378906250e+02 2.328584747314453125e+02 2.333252258300781250e+02 2.334395141601562500e+02 2.334129180908203125e+02 2.332997894287109375e+02 2.329758453369140625e+02 2.326958465576171875e+02 2.324467468261718750e+02 2.321961669921875000e+02 2.319511260986328125e+02 2.317938385009765625e+02 2.316223907470703125e+02 2.315213470458984375e+02 2.313956756591796875e+02 2.313207550048828125e+02 2.312406463623046875e+02 2.311667785644531250e+02 2.310664978027343750e+02 2.309945220947265625e+02 2.308535919189453125e+02 2.307278289794921875e+02 2.305417480468750000e+02 2.303922882080078125e+02 2.301765747070312500e+02 2.299423980712890625e+02 2.296530456542968750e+02 2.294436950683593750e+02 2.292888793945312500e+02 2.290831146240234375e+02 2.287575378417968750e+02
2.540594024658203125e+02 2.541688690185546875e+02 2.542498474121093750e+02 2.543702850341796875e+02 2.544181671142578125e+02 2.544983825683593750e+02 2.545106353759765625e+02 2.546201324462890625e+02 2.546444396972656250e+02 2.545594177246093750e+02 2.544598388671875000e+02 2.543548736572265625e+02 2.541885986328125000e+02 2.541007843017578125e+02 2.541614227294921875e+02 2.541970062255859375e+02 2.542370452880859375e+02 2.542181091308593750e+02 2.543166961669921875e+02 2.543377532958984375e+02 2.541771850585937500e+02 2.542092132568359375e+02 2.541450042724609375e+02 2.540781860351562500e+02 2.539137573242187500e+02 2.538463745117187500e+02 2.536868591308593750e+02 2.537584533691406250e+02 2.538782501220703125e+02 2.538066711425781250e+02 2.535511016845703125e+02 2.532668304443359375e+02 2.534954528808593750e+02 2.535187377929687500e+02 2.538347625732421875e+02 2.537886657714843750e+02 2.538669738769531250e+02 2.538409576416015625e+02 2.538944854736328125e+02 2.539975433349609375e+02 2.540943603515625000e+02 2.541162719726562500e+02 2.541010589599609375e+02 2.540744476318359375e+02 2.540635223388671875e+02 2.537902526855468750e+02 2.538167419433593750e+02 2.537354431152343750e+02 2.532670898437500000e+02 2.533936767578125000e+02 2.531722259521484375e+02 2.530669250488281250e+02 2.525613098144531250e+02 2.521417083740234375e+02 2.508801574707031250e+02 2.509272613525390625e+02 2.513920745849609375e+02 2.518616943359375000e+02 2.518788757324218750e+02 2.520221405029296875e+02 2.520346679687500000e+02 2.521642456054687500e+02 2.522522125244140625e+02 2.522944030761718750e+02 2.522220306396484375e+02 2.522236328125000000e+02 2.519331970214843750e+02 2.518910217285156250e+02 2.516581726074218750e+02 2.514822387695312500e+02 2.513558197021484375e+02 2.512978363037109375e+02 2.511699523925781250e+02 2.508956909179687500e+02 2.504108428955078125e+02 2.496476440429687500e+02 2.486709136962890625e+02 2.474606781005859375e+02 2.454602813720703125e+02 2.449261779785156250e+02 2.452460174560546875e+02 2.458172302246093750e+02 2.433096923828125000e+02 2.365525817871093750e+02 2.358521728515625000e+02 2.379946594238281250e+02 2.347804565429687500e+02 2.354677124023437500e+02 2.334308013916015625e+02 2.327601470947265625e+02 2.332043914794921875e+02 2.333028411865234375e+02 2.332673645019531250e+02 2.331605834960937500e+02 2.328830108642578125e+02 2.326230468750000000e+02 2.324011993408203125e+02 2.321494140625000000e+02 2.319214172363281250e+02 2.317844696044921875e+02 2.316136322021484375e+02 2.315104827880859375e+02 2.313877563476562500e+02 2.313158569335937500e+02 2.312358093261718750e+02 2.311604003906250000e+02 2.310556182861328125e+02 2.309838714599609375e+02 2.308428955078125000e+02 2.307171783447265625e+02 2.305323791503906250e+02 2.303832702636718750e+02 2.301673126220703125e+02 2.299335327148437500e+02 2.296425476074218750e+02 2.294408721923828125e+02 2.292809448242187500e+02 2.290731658935546875e+02 2.287448120117187500e+02
2.540621643066406250e+02 2.541642761230468750e+02 2.542523498535156250e+02 2.543845977783203125e+02 2.544601135253906250e+02 2.545362243652343750e+02 2.545006866455078125e+02 2.545846099853515625e+02 2.546432800292968750e+02 2.545652923583984375e+02 2.544817199707031250e+02 2.543176574707031250e+02 2.542556762695312500e+02 2.541948547363281250e+02 2.542202148437500000e+02 2.542567138671875000e+02 2.542610626220703125e+02 2.542234954833984375e+02 2.543097229003906250e+02 2.543099365234375000e+02 2.541651000976562500e+02 2.541888275146484375e+02 2.540624237060546875e+02 2.540306854248046875e+02 2.539094390869140625e+02 2.538552703857421875e+02 2.537827758789062500e+02 2.537577056884765625e+02 2.538214111328125000e+02 2.536605377197265625e+02 2.534212493896484375e+02 2.530850677490234375e+02 2.533143310546875000e+02 2.534059753417968750e+02 2.537623138427734375e+02 2.537215576171875000e+02 2.537876739501953125e+02 2.537958068847656250e+02 2.538591613769531250e+02 2.539542236328125000e+02 2.540494537353515625e+02 2.541191558837890625e+02 2.541078338623046875e+02 2.540219116210937500e+02 2.538782958984375000e+02 2.537936553955078125e+02 2.538890380859375000e+02 2.536326599121093750e+02 2.532845611572265625e+02 2.531897888183593750e+02 2.529618072509765625e+02 2.527507476806640625e+02 2.524639739990234375e+02 2.521915893554687500e+02 2.513164520263671875e+02 2.505631408691406250e+02 2.509448852539062500e+02 2.514288940429687500e+02 2.514193267822265625e+02 2.515404510498046875e+02 2.514016571044921875e+02 2.515104064941406250e+02 2.515717926025390625e+02 2.515898895263671875e+02 2.514449768066406250e+02 2.514575195312500000e+02 2.512247314453125000e+02 2.511144256591796875e+02 2.509325714111328125e+02 2.508047180175781250e+02 2.507299346923828125e+02 2.506903991699218750e+02 2.502761535644531250e+02 2.500457458496093750e+02 2.488768005371093750e+02 2.476511535644531250e+02 2.461066894531250000e+02 2.444640655517578125e+02 2.427478942871093750e+02 2.414685516357421875e+02 2.403208160400390625e+02 2.394054412841796875e+02 2.386399078369140625e+02 2.327288665771484375e+02 2.367816467285156250e+02 2.390513305664062500e+02 2.355703277587890625e+02 2.363450317382812500e+02 2.344548797607421875e+02 2.333832855224609375e+02 2.334818878173828125e+02 2.333250427246093750e+02 2.332561035156250000e+02 2.330732116699218750e+02 2.328044128417968750e+02 2.325780944824218750e+02 2.323730163574218750e+02 2.321429138183593750e+02 2.319099273681640625e+02 2.317714691162109375e+02 2.316215057373046875e+02 2.315192565917968750e+02 2.313976593017578125e+02 2.313182830810546875e+02 2.312412872314453125e+02 2.311569061279296875e+02 2.310515136718750000e+02 2.309742889404296875e+02 2.308323974609375000e+02 2.307052764892578125e+02 2.305168151855468750e+02 2.303657226562500000e+02 2.301519012451171875e+02 2.299202117919921875e+02 2.296316070556640625e+02 2.294317932128906250e+02 2.292728576660156250e+02 2.290651550292968750e+02 2.287355957031250000e+02
2.541126861572265625e+02 2.541608581542968750e+02 2.542519226074218750e+02 2.543724975585937500e+02 2.544535369873046875e+02 2.545440979003906250e+02 2.545570220947265625e+02 2.545889282226562500e+02 2.545807342529296875e+02 2.545044555664062500e+02 2.544271087646484375e+02 2.543484191894531250e+02 2.542980499267578125e+02 2.542576446533203125e+02 2.542459259033203125e+02 2.543009033203125000e+02 2.542684783935546875e+02 2.542444458007812500e+02 2.543275146484375000e+02 2.543227386474609375e+02 2.541364440917968750e+02 2.541618652343750000e+02 2.540494232177734375e+02 2.540522613525390625e+02 2.539061126708984375e+02 2.538518371582031250e+02 2.537698211669921875e+02 2.537264099121093750e+02 2.537032928466796875e+02 2.535559082031250000e+02 2.533324279785156250e+02 2.529846954345703125e+02 2.531792297363281250e+02 2.534045410156250000e+02 2.536990203857421875e+02 2.537162017822265625e+02 2.537286529541015625e+02 2.537630767822265625e+02 2.538628082275390625e+02 2.539046325683593750e+02 2.540092926025390625e+02 2.541129302978515625e+02 2.540952758789062500e+02 2.540529785156250000e+02 2.538007049560546875e+02 2.537858123779296875e+02 2.539191589355468750e+02 2.537057800292968750e+02 2.532754516601562500e+02 2.532544860839843750e+02 2.529867248535156250e+02 2.524486694335937500e+02 2.522640991210937500e+02 2.521098480224609375e+02 2.517266998291015625e+02 2.512781372070312500e+02 2.512070770263671875e+02 2.513663024902343750e+02 2.515651702880859375e+02 2.514912719726562500e+02 2.513244628906250000e+02 2.513742675781250000e+02 2.512110595703125000e+02 2.509925537109375000e+02 2.506324615478515625e+02 2.504575805664062500e+02 2.502011260986328125e+02 2.499362030029296875e+02 2.495165710449218750e+02 2.493815917968750000e+02 2.491347808837890625e+02 2.488679809570312500e+02 2.482006378173828125e+02 2.479227752685546875e+02 2.467642059326171875e+02 2.449904022216796875e+02 2.431228179931640625e+02 2.420935974121093750e+02 2.404566040039062500e+02 2.397798156738281250e+02 2.376096343994140625e+02 2.350242156982421875e+02 2.375347442626953125e+02 2.336058807373046875e+02 2.394962615966796875e+02 2.394365081787109375e+02 2.358162841796875000e+02 2.363134918212890625e+02 2.345139617919921875e+02 2.334311828613281250e+02 2.333871154785156250e+02 2.332104034423828125e+02 2.330844573974609375e+02 2.329300384521484375e+02 2.327120819091796875e+02 2.325035400390625000e+02 2.323238677978515625e+02 2.321031341552734375e+02 2.318751525878906250e+02 2.317463073730468750e+02 2.315919036865234375e+02 2.314864807128906250e+02 2.313693237304687500e+02 2.312906341552734375e+02 2.312186431884765625e+02 2.311328887939453125e+02 2.310314941406250000e+02 2.309530792236328125e+02 2.308131561279296875e+02 2.306848144531250000e+02 2.304993591308593750e+02 2.303502044677734375e+02 2.301370391845703125e+02 2.299037628173828125e+02 2.296170196533203125e+02 2.294218902587890625e+02 2.292590026855468750e+02 2.290487976074218750e+02 2.287173919677734375e+02
2.540689392089843750e+02 2.541622924804687500e+02 2.542601165771484375e+02 2.543735351562500000e+02 2.544443206787109375e+02 2.545404510498046875e+02 2.545905609130859375e+02 2.545605163574218750e+02 2.545387725830078125e+02 2.544958648681640625e+02 2.543932189941406250e+02 2.543940887451171875e+02 2.543670043945312500e+02 2.543364562988281250e+02 2.542860565185546875e+02 2.543095703125000000e+02 2.542449493408203125e+02 2.542896118164062500e+02 2.543363037109375000e+02 2.543406372070312500e+02 2.540782775878906250e+02 2.540724182128906250e+02 2.539754180908203125e+02 2.539496307373046875e+02 2.538609313964843750e+02 2.538242950439453125e+02 2.537572021484375000e+02 2.536765594482421875e+02 2.535176696777343750e+02 2.533386077880859375e+02 2.532070159912109375e+02 2.526393280029296875e+02 2.531608581542968750e+02 2.534339141845703125e+02 2.536491699218750000e+02 2.536994476318359375e+02 2.536864471435546875e+02 2.537233428955078125e+02 2.538441925048828125e+02 2.538547058105468750e+02 2.539740447998046875e+02 2.540936126708984375e+02 2.540742950439453125e+02 2.540319824218750000e+02 2.538149108886718750e+02 2.537370300292968750e+02 2.538896179199218750e+02 2.536542510986328125e+02 2.534050445556640625e+02 2.532948455810546875e+02 2.528929595947265625e+02 2.521602020263671875e+02 2.519870605468750000e+02 2.523065948486328125e+02 2.515718536376953125e+02 2.512113494873046875e+02 2.507746429443359375e+02 2.507486267089843750e+02 2.507446594238281250e+02 2.500985870361328125e+02 2.492938537597656250e+02 2.490192718505859375e+02 2.484849853515625000e+02 2.482608947753906250e+02 2.476943664550781250e+02 2.473655090332031250e+02 2.468848876953125000e+02 2.464531402587890625e+02 2.456996765136718750e+02 2.452553253173828125e+02 2.446417541503906250e+02 2.439427642822265625e+02 2.429409027099609375e+02 2.440325622558593750e+02 2.431126098632812500e+02 2.420892944335937500e+02 2.400751647949218750e+02 2.393338623046875000e+02 2.380141906738281250e+02 2.364994964599609375e+02 2.345934143066406250e+02 2.328084411621093750e+02 2.374127502441406250e+02 2.370888977050781250e+02 2.394283142089843750e+02 2.388546447753906250e+02 2.349187927246093750e+02 2.354460754394531250e+02 2.343387908935546875e+02 2.334688568115234375e+02 2.333457641601562500e+02 2.330838928222656250e+02 2.329491424560546875e+02 2.327337493896484375e+02 2.325838317871093750e+02 2.324246368408203125e+02 2.322208099365234375e+02 2.320278930664062500e+02 2.318134765625000000e+02 2.316810913085937500e+02 2.315419921875000000e+02 2.314413757324218750e+02 2.313258666992187500e+02 2.312501678466796875e+02 2.311788330078125000e+02 2.310955963134765625e+02 2.309955444335937500e+02 2.309198303222656250e+02 2.307817993164062500e+02 2.306581268310546875e+02 2.304736175537109375e+02 2.303267211914062500e+02 2.301143341064453125e+02 2.298838500976562500e+02 2.295968322753906250e+02 2.294038085937500000e+02 2.292436981201171875e+02 2.290356597900390625e+02 2.287006683349609375e+02
2.540651397705078125e+02 2.541940460205078125e+02 2.542791900634765625e+02 2.543810882568359375e+02 2.544602661132812500e+02 2.545176544189453125e+02 2.545986785888671875e+02 2.545673217773437500e+02 2.545200195312500000e+02 2.544594116210937500e+02 2.544090728759765625e+02 2.544157257080078125e+02 2.543958129882812500e+02 2.543506622314453125e+02 2.542667541503906250e+02 2.542880859375000000e+02 2.541612701416015625e+02 2.543412628173828125e+02 2.543249664306640625e+02 2.542920989990234375e+02 2.540089721679687500e+02 2.539659118652343750e+02 2.539007263183593750e+02 2.538576507568359375e+02 2.538410186767578125e+02 2.538145446777343750e+02 2.537406768798828125e+02 2.536293487548828125e+02 2.534020538330078125e+02 2.530487670898437500e+02 2.528288116455078125e+02 2.526654815673828125e+02 2.531697540283203125e+02 2.534135131835937500e+02 2.536164093017578125e+02 2.537169036865234375e+02 2.536855163574218750e+02 2.537227630615234375e+02 2.538320159912109375e+02 2.537832794189453125e+02 2.539389038085937500e+02 2.540714874267578125e+02 2.539783172607421875e+02 2.539278869628906250e+02 2.537797393798828125e+02 2.539276580810546875e+02 2.537837677001953125e+02 2.535303497314453125e+02 2.535086975097656250e+02 2.532992553710937500e+02 2.528518218994140625e+02 2.521939544677734375e+02 2.518483886718750000e+02 2.520470123291015625e+02 2.511259155273437500e+02 2.509941558837890625e+02 2.512813110351562500e+02 2.509572906494140625e+02 2.510700988769531250e+02 2.503649444580078125e+02 2.496703491210937500e+02 2.492607879638671875e+02 2.485953674316406250e+02 2.481089019775390625e+02 2.474792938232421875e+02 2.471819305419921875e+02 2.467130737304687500e+02 2.461728820800781250e+02 2.453143005371093750e+02 2.448724670410156250e+02 2.445298461914062500e+02 2.440662078857421875e+02 2.433499603271484375e+02 2.432641906738281250e+02 2.420905914306640625e+02 2.417957000732421875e+02 2.403117218017578125e+02 2.397783203125000000e+02 2.383681793212890625e+02 2.366053771972656250e+02 2.368533630371093750e+02 2.374794769287109375e+02 2.392500000000000000e+02 2.367783966064453125e+02 2.377379760742187500e+02 2.374158325195312500e+02 2.343750000000000000e+02 2.352880554199218750e+02 2.342740783691406250e+02 2.335415344238281250e+02 2.334154663085937500e+02 2.331876068115234375e+02 2.329701995849609375e+02 2.327259674072265625e+02 2.325538330078125000e+02 2.323966369628906250e+02 2.322323303222656250e+02 2.320266265869140625e+02 2.317854766845703125e+02 2.316715393066406250e+02 2.315373840332031250e+02 2.314398193359375000e+02 2.313265380859375000e+02 2.312517242431640625e+02 2.311804504394531250e+02 2.310923767089843750e+02 2.309858245849609375e+02 2.309109497070312500e+02 2.307700958251953125e+02 2.306479492187500000e+02 2.304640502929687500e+02 2.303186340332031250e+02 2.301069641113281250e+02 2.298759155273437500e+02 2.295862121582031250e+02 2.294008636474609375e+02 2.292337493896484375e+02 2.290249938964843750e+02 2.286879119873046875e+02
2.540246582031250000e+02 2.542087097167968750e+02 2.542994842529296875e+02 2.543904571533203125e+02 2.544854125976562500e+02 2.545034179687500000e+02 2.546126556396484375e+02 2.545466308593750000e+02 2.544936370849609375e+02 2.544895629882812500e+02 2.544550628662109375e+02 2.544486999511718750e+02 2.544388885498046875e+02 2.543318939208984375e+02 2.543071136474609375e+02 2.541961059570312500e+02 2.541416015625000000e+02 2.542957458496093750e+02 2.542758331298828125e+02 2.542174224853515625e+02 2.539622802734375000e+02 2.538280792236328125e+02 2.538376464843750000e+02 2.537872467041015625e+02 2.537928924560546875e+02 2.537922668457031250e+02 2.537422180175781250e+02 2.535597076416015625e+02 2.531509399414062500e+02 2.528059844970703125e+02 2.527630615234375000e+02 2.527080841064453125e+02 2.532050323486328125e+02 2.533395690917968750e+02 2.536344909667968750e+02 2.536796264648437500e+02 2.537101745605468750e+02 2.537736511230468750e+02 2.538236694335937500e+02 2.537813720703125000e+02 2.539223480224609375e+02 2.540020751953125000e+02 2.539204406738281250e+02 2.538777008056640625e+02 2.537423248291015625e+02 2.539945831298828125e+02 2.537192993164062500e+02 2.535009307861328125e+02 2.535913238525390625e+02 2.532972564697265625e+02 2.526602172851562500e+02 2.520092620849609375e+02 2.514833068847656250e+02 2.519195404052734375e+02 2.512806701660156250e+02 2.510393676757812500e+02 2.512520599365234375e+02 2.500265350341796875e+02 2.499790496826171875e+02 2.490617065429687500e+02 2.481831359863281250e+02 2.474703521728515625e+02 2.462817382812500000e+02 2.456885070800781250e+02 2.449800720214843750e+02 2.447487487792968750e+02 2.442070159912109375e+02 2.438383178710937500e+02 2.433204193115234375e+02 2.429252929687500000e+02 2.424536285400390625e+02 2.421439514160156250e+02 2.417717285156250000e+02 2.418757476806640625e+02 2.412929687500000000e+02 2.405742034912109375e+02 2.395479125976562500e+02 2.385989837646484375e+02 2.377363281250000000e+02 2.371932678222656250e+02 2.377003021240234375e+02 2.366330261230468750e+02 2.357591552734375000e+02 2.349896545410156250e+02 2.337961730957031250e+02 2.350068206787109375e+02 2.341293792724609375e+02 2.341664733886718750e+02 2.336320343017578125e+02 2.333723907470703125e+02 2.332495117187500000e+02 2.329998931884765625e+02 2.328845367431640625e+02 2.326228027343750000e+02 2.325013732910156250e+02 2.323375549316406250e+02 2.321571960449218750e+02 2.319700469970703125e+02 2.317537078857421875e+02 2.316455383300781250e+02 2.315259704589843750e+02 2.314271697998046875e+02 2.313186798095703125e+02 2.312462921142578125e+02 2.311711883544921875e+02 2.310822906494140625e+02 2.309757080078125000e+02 2.308997650146484375e+02 2.307619628906250000e+02 2.306391296386718750e+02 2.304552307128906250e+02 2.303072052001953125e+02 2.300967559814453125e+02 2.298651428222656250e+02 2.295787353515625000e+02 2.293959655761718750e+02 2.292287139892578125e+02 2.290200653076171875e+02 2.286822509765625000e+02
2.540813598632812500e+02 2.542088317871093750e+02 2.543143768310546875e+02 2.544025573730468750e+02 2.545013732910156250e+02 2.545072937011718750e+02 2.545973815917968750e+02 2.545630035400390625e+02 2.544661102294921875e+02 2.544975891113281250e+02 2.544836883544921875e+02 2.544668884277343750e+02 2.544728393554687500e+02 2.543617248535156250e+02 2.544000091552734375e+02 2.541754455566406250e+02 2.541770935058593750e+02 2.542423858642578125e+02 2.542580261230468750e+02 2.541721496582031250e+02 2.539183959960937500e+02 2.538223114013671875e+02 2.537807159423828125e+02 2.537413330078125000e+02 2.537983703613281250e+02 2.537961730957031250e+02 2.537290954589843750e+02 2.535382690429687500e+02 2.530935516357421875e+02 2.526677551269531250e+02 2.526509246826171875e+02 2.527729492187500000e+02 2.532791137695312500e+02 2.534017028808593750e+02 2.536314239501953125e+02 2.536674041748046875e+02 2.536949157714843750e+02 2.538296661376953125e+02 2.538255310058593750e+02 2.538040771484375000e+02 2.539424591064453125e+02 2.539594879150390625e+02 2.538783721923828125e+02 2.537893676757812500e+02 2.538822784423828125e+02 2.539982604980468750e+02 2.536667327880859375e+02 2.535722961425781250e+02 2.534422454833984375e+02 2.530717010498046875e+02 2.522604827880859375e+02 2.516558685302734375e+02 2.513229827880859375e+02 2.513284606933593750e+02 2.512542877197265625e+02 2.513236694335937500e+02 2.513188629150390625e+02 2.495078735351562500e+02 2.494011993408203125e+02 2.486865386962890625e+02 2.474780120849609375e+02 2.465440216064453125e+02 2.450932769775390625e+02 2.445859069824218750e+02 2.439617156982421875e+02 2.436374664306640625e+02 2.430952606201171875e+02 2.427033843994140625e+02 2.421792907714843750e+02 2.418124694824218750e+02 2.413029937744140625e+02 2.410555267333984375e+02 2.404779357910156250e+02 2.400142822265625000e+02 2.389577789306640625e+02 2.378434600830078125e+02 2.368768615722656250e+02 2.362860107421875000e+02 2.357395935058593750e+02 2.353315887451171875e+02 2.349195404052734375e+02 2.340247802734375000e+02 2.341739044189453125e+02 2.346463317871093750e+02 2.343518066406250000e+02 2.349340362548828125e+02 2.343487091064453125e+02 2.341178741455078125e+02 2.336344604492187500e+02 2.333751068115234375e+02 2.332815551757812500e+02 2.330131530761718750e+02 2.328354339599609375e+02 2.325619201660156250e+02 2.323913574218750000e+02 2.322442474365234375e+02 2.320658874511718750e+02 2.319038543701171875e+02 2.316996612548828125e+02 2.315951538085937500e+02 2.314942932128906250e+02 2.314040374755859375e+02 2.312987823486328125e+02 2.312292175292968750e+02 2.311521911621093750e+02 2.310679321289062500e+02 2.309596710205078125e+02 2.308816223144531250e+02 2.307450714111328125e+02 2.306214447021484375e+02 2.304414672851562500e+02 2.302935333251953125e+02 2.300829925537109375e+02 2.298513183593750000e+02 2.295668945312500000e+02 2.293889160156250000e+02 2.292187805175781250e+02 2.290083770751953125e+02 2.286690216064453125e+02
2.540695800781250000e+02 2.542325439453125000e+02 2.543316497802734375e+02 2.543875885009765625e+02 2.545059509277343750e+02 2.545200805664062500e+02 2.545932159423828125e+02 2.545592956542968750e+02 2.544691925048828125e+02 2.545146026611328125e+02 2.545123748779296875e+02 2.545023193359375000e+02 2.544798736572265625e+02 2.543531036376953125e+02 2.543725280761718750e+02 2.541986999511718750e+02 2.543085937500000000e+02 2.542227478027343750e+02 2.541662750244140625e+02 2.539795074462890625e+02 2.538948822021484375e+02 2.537964782714843750e+02 2.537447357177734375e+02 2.537504577636718750e+02 2.537428894042968750e+02 2.537502136230468750e+02 2.536906280517578125e+02 2.534951782226562500e+02 2.528971710205078125e+02 2.526313171386718750e+02 2.528148651123046875e+02 2.529378509521484375e+02 2.532587890625000000e+02 2.534546356201171875e+02 2.535841979980468750e+02 2.537848815917968750e+02 2.537409820556640625e+02 2.538181304931640625e+02 2.539027252197265625e+02 2.539104461669921875e+02 2.538280334472656250e+02 2.537898864746093750e+02 2.538176269531250000e+02 2.538025817871093750e+02 2.538148803710937500e+02 2.539463195800781250e+02 2.535721435546875000e+02 2.534385375976562500e+02 2.532391357421875000e+02 2.528192749023437500e+02 2.519866027832031250e+02 2.514109191894531250e+02 2.509120483398437500e+02 2.504376068115234375e+02 2.508186798095703125e+02 2.513502807617187500e+02 2.507784271240234375e+02 2.486277770996093750e+02 2.481956329345703125e+02 2.473840789794921875e+02 2.459226684570312500e+02 2.447250976562500000e+02 2.432987670898437500e+02 2.427856597900390625e+02 2.422202606201171875e+02 2.418146057128906250e+02 2.412531127929687500e+02 2.408600921630859375e+02 2.404396209716796875e+02 2.400777740478515625e+02 2.395865936279296875e+02 2.393166046142578125e+02 2.388056640625000000e+02 2.385160369873046875e+02 2.379391174316406250e+02 2.374731445312500000e+02 2.367799377441406250e+02 2.364641876220703125e+02 2.359823608398437500e+02 2.353439025878906250e+02 2.344048767089843750e+02 2.334718780517578125e+02 2.335889587402343750e+02 2.339601898193359375e+02 2.339893798828125000e+02 2.343763275146484375e+02 2.335246734619140625e+02 2.336432495117187500e+02 2.331567535400390625e+02 2.332054443359375000e+02 2.330074615478515625e+02 2.328294830322265625e+02 2.326762084960937500e+02 2.324160919189453125e+02 2.323018646240234375e+02 2.321590423583984375e+02 2.320150451660156250e+02 2.318582763671875000e+02 2.316621398925781250e+02 2.315557250976562500e+02 2.314555358886718750e+02 2.313639221191406250e+02 2.312737274169921875e+02 2.312049102783203125e+02 2.311279296875000000e+02 2.310467987060546875e+02 2.309376373291015625e+02 2.308574218750000000e+02 2.307203521728515625e+02 2.305983428955078125e+02 2.304198455810546875e+02 2.302738952636718750e+02 2.300644226074218750e+02 2.298349914550781250e+02 2.295511016845703125e+02 2.293753051757812500e+02 2.292065887451171875e+02 2.289979553222656250e+02 2.286561889648437500e+02
2.540516204833984375e+02 2.542395935058593750e+02 2.543343811035156250e+02 2.543860931396484375e+02 2.544967041015625000e+02 2.545379333496093750e+02 2.545660247802734375e+02 2.545195312500000000e+02 2.545243072509765625e+02 2.545269165039062500e+02 2.545231628417968750e+02 2.545264129638671875e+02 2.544696807861328125e+02 2.543706054687500000e+02 2.544269561767578125e+02 2.543137359619140625e+02 2.543464813232421875e+02 2.542393493652343750e+02 2.541106872558593750e+02 2.540025482177734375e+02 2.539180145263671875e+02 2.538807830810546875e+02 2.537532196044921875e+02 2.537274780273437500e+02 2.536814575195312500e+02 2.536739501953125000e+02 2.536770477294921875e+02 2.535148468017578125e+02 2.529348297119140625e+02 2.525179901123046875e+02 2.528151550292968750e+02 2.527607727050781250e+02 2.532316741943359375e+02 2.533740692138671875e+02 2.535771636962890625e+02 2.537671508789062500e+02 2.538606262207031250e+02 2.539003448486328125e+02 2.540034027099609375e+02 2.539636230468750000e+02 2.538075103759765625e+02 2.536275939941406250e+02 2.537863922119140625e+02 2.538460388183593750e+02 2.538578643798828125e+02 2.538554077148437500e+02 2.535150604248046875e+02 2.533700866699218750e+02 2.531406707763671875e+02 2.524941864013671875e+02 2.517895202636718750e+02 2.511482849121093750e+02 2.509801177978515625e+02 2.498288574218750000e+02 2.507879638671875000e+02 2.512135772705078125e+02 2.498025512695312500e+02 2.480665435791015625e+02 2.472429504394531250e+02 2.462781829833984375e+02 2.452456359863281250e+02 2.440561523437500000e+02 2.428702087402343750e+02 2.420946502685546875e+02 2.416788787841796875e+02 2.415249938964843750e+02 2.409509277343750000e+02 2.406591033935546875e+02 2.401417083740234375e+02 2.398333129882812500e+02 2.393561859130859375e+02 2.391229248046875000e+02 2.385645141601562500e+02 2.382845916748046875e+02 2.377836151123046875e+02 2.374530639648437500e+02 2.368606567382812500e+02 2.365376129150390625e+02 2.359779815673828125e+02 2.353309173583984375e+02 2.346605987548828125e+02 2.337858734130859375e+02 2.339839324951171875e+02 2.343244628906250000e+02 2.341518249511718750e+02 2.340622406005859375e+02 2.335997772216796875e+02 2.338263397216796875e+02 2.329381561279296875e+02 2.332742462158203125e+02 2.329981689453125000e+02 2.328354949951171875e+02 2.326805419921875000e+02 2.324233551025390625e+02 2.322876892089843750e+02 2.321387023925781250e+02 2.319838867187500000e+02 2.318298645019531250e+02 2.316515655517578125e+02 2.315420532226562500e+02 2.314310760498046875e+02 2.313387603759765625e+02 2.312457122802734375e+02 2.311842803955078125e+02 2.311125488281250000e+02 2.310332794189453125e+02 2.309276123046875000e+02 2.308480224609375000e+02 2.307104949951171875e+02 2.305895843505859375e+02 2.304114990234375000e+02 2.302657165527343750e+02 2.300554199218750000e+02 2.298265228271484375e+02 2.295390777587890625e+02 2.293721923828125000e+02 2.291972198486328125e+02 2.289874725341796875e+02 2.286424713134765625e+02
2.539900360107421875e+02 2.542268066406250000e+02 2.543191375732421875e+02 2.543854827880859375e+02 2.544592895507812500e+02 2.545626068115234375e+02 2.545319519042968750e+02 2.544970092773437500e+02 2.545661315917968750e+02 2.545335540771484375e+02 2.545237274169921875e+02 2.545208435058593750e+02 2.545292968750000000e+02 2.543965301513671875e+02 2.543855133056640625e+02 2.542790222167968750e+02 2.542941589355468750e+02 2.542952575683593750e+02 2.541305847167968750e+02 2.537773895263671875e+02 2.537970275878906250e+02 2.538645782470703125e+02 2.536446533203125000e+02 2.536581420898437500e+02 2.535834808349609375e+02 2.535765228271484375e+02 2.536053619384765625e+02 2.534131622314453125e+02 2.528227386474609375e+02 2.523749084472656250e+02 2.526537017822265625e+02 2.525709075927734375e+02 2.531513977050781250e+02 2.533610534667968750e+02 2.534611053466796875e+02 2.537019500732421875e+02 2.538664855957031250e+02 2.538532714843750000e+02 2.539551696777343750e+02 2.539072875976562500e+02 2.538339843750000000e+02 2.535377349853515625e+02 2.537341003417968750e+02 2.538197326660156250e+02 2.537112579345703125e+02 2.537078094482421875e+02 2.534657745361328125e+02 2.532504882812500000e+02 2.528959960937500000e+02 2.521513366699218750e+02 2.513477630615234375e+02 2.506313323974609375e+02 2.504475097656250000e+02 2.493501281738281250e+02 2.498808898925781250e+02 2.505965728759765625e+02 2.481975250244140625e+02 2.466727447509765625e+02 2.457629241943359375e+02 2.451355895996093750e+02 2.439661407470703125e+02 2.433743591308593750e+02 2.421555480957031250e+02 2.413139038085937500e+02 2.411651916503906250e+02 2.410239715576171875e+02 2.405430755615234375e+02 2.401822509765625000e+02 2.396193389892578125e+02 2.392695465087890625e+02 2.388830871582031250e+02 2.385578308105468750e+02 2.379883728027343750e+02 2.376314697265625000e+02 2.370354003906250000e+02 2.366923980712890625e+02 2.360326995849609375e+02 2.356137084960937500e+02 2.348800048828125000e+02 2.341970977783203125e+02 2.336008758544921875e+02 2.332435913085937500e+02 2.334688873291015625e+02 2.336477203369140625e+02 2.336371002197265625e+02 2.339454803466796875e+02 2.336514892578125000e+02 2.332685241699218750e+02 2.328934631347656250e+02 2.330647125244140625e+02 2.328444671630859375e+02 2.326924438476562500e+02 2.325394439697265625e+02 2.323496704101562500e+02 2.322023010253906250e+02 2.320380249023437500e+02 2.318951263427734375e+02 2.317455291748046875e+02 2.315742187500000000e+02 2.314675445556640625e+02 2.313708801269531250e+02 2.312942352294921875e+02 2.312044525146484375e+02 2.311479949951171875e+02 2.310770416259765625e+02 2.310016479492187500e+02 2.308979949951171875e+02 2.308208160400390625e+02 2.306899261474609375e+02 2.305717468261718750e+02 2.303935394287109375e+02 2.302453002929687500e+02 2.300363006591796875e+02 2.298077697753906250e+02 2.295246734619140625e+02 2.293620300292968750e+02 2.291874389648437500e+02 2.289784240722656250e+02 2.286313629150390625e+02
2.539919128417968750e+02 2.542196350097656250e+02 2.543331451416015625e+02 2.544264068603515625e+02 2.544710540771484375e+02 2.545652313232421875e+02 2.545240936279296875e+02 2.544775848388671875e+02 2.545857086181640625e+02 2.545438537597656250e+02 2.545241241455078125e+02 2.545217437744140625e+02 2.544690399169921875e+02 2.544060516357421875e+02 2.543952941894531250e+02 2.542811889648437500e+02 2.543001556396484375e+02 2.542684478759765625e+02 2.540827941894531250e+02 2.536150054931640625e+02 2.538362121582031250e+02 2.538269500732421875e+02 2.535496215820312500e+02 2.536385650634765625e+02 2.535491027832031250e+02 2.535320739746093750e+02 2.535778350830078125e+02 2.533833312988281250e+02 2.527592926025390625e+02 2.523278045654296875e+02 2.526320190429687500e+02 2.524804687500000000e+02 2.531290130615234375e+02 2.533435821533203125e+02 2.534248657226562500e+02 2.536722564697265625e+02 2.538251190185546875e+02 2.538305053710937500e+02 2.538724517822265625e+02 2.539205932617187500e+02 2.538713073730468750e+02 2.535543060302734375e+02 2.537296295166015625e+02 2.538190002441406250e+02 2.535593566894531250e+02 2.535938720703125000e+02 2.534017181396484375e+02 2.531278839111328125e+02 2.527298278808593750e+02 2.519694976806640625e+02 2.510109558105468750e+02 2.502377319335937500e+02 2.500148468017578125e+02 2.492330017089843750e+02 2.495055541992187500e+02 2.502153320312500000e+02 2.469747772216796875e+02 2.458642730712890625e+02 2.452694702148437500e+02 2.445054931640625000e+02 2.437472686767578125e+02 2.434518737792968750e+02 2.425088043212890625e+02 2.418893737792968750e+02 2.413845062255859375e+02 2.414748687744140625e+02 2.409696502685546875e+02 2.406006317138671875e+02 2.399935455322265625e+02 2.396212005615234375e+02 2.390727996826171875e+02 2.385150146484375000e+02 2.376129302978515625e+02 2.371531982421875000e+02 2.364671325683593750e+02 2.361085662841796875e+02 2.355200347900390625e+02 2.350596160888671875e+02 2.344327697753906250e+02 2.337950439453125000e+02 2.335015869140625000e+02 2.334564514160156250e+02 2.334745330810546875e+02 2.335658721923828125e+02 2.332964477539062500e+02 2.335448760986328125e+02 2.330522918701171875e+02 2.329126739501953125e+02 2.330003662109375000e+02 2.330093231201171875e+02 2.328043670654296875e+02 2.326618194580078125e+02 2.325093536376953125e+02 2.323125610351562500e+02 2.321341552734375000e+02 2.319834747314453125e+02 2.318347778320312500e+02 2.316929779052734375e+02 2.315325469970703125e+02 2.314338989257812500e+02 2.313382568359375000e+02 2.312686157226562500e+02 2.311825866699218750e+02 2.311231384277343750e+02 2.310508117675781250e+02 2.309788055419921875e+02 2.308754730224609375e+02 2.307994842529296875e+02 2.306666107177734375e+02 2.305484771728515625e+02 2.303734436035156250e+02 2.302264709472656250e+02 2.300188903808593750e+02 2.297890625000000000e+02 2.295084533691406250e+02 2.293528594970703125e+02 2.291733398437500000e+02 2.289616699218750000e+02 2.286102294921875000e+02
2.540126190185546875e+02 2.542071990966796875e+02 2.543335876464843750e+02 2.544548492431640625e+02 2.544887237548828125e+02 2.545584106445312500e+02 2.545466461181640625e+02 2.544445190429687500e+02 2.545827331542968750e+02 2.545499420166015625e+02 2.545296325683593750e+02 2.545179748535156250e+02 2.544832916259765625e+02 2.543966369628906250e+02 2.543545227050781250e+02 2.542923889160156250e+02 2.543197021484375000e+02 2.542305908203125000e+02 2.540835723876953125e+02 2.536244354248046875e+02 2.538182830810546875e+02 2.537415466308593750e+02 2.534481048583984375e+02 2.535678558349609375e+02 2.534207000732421875e+02 2.534163970947265625e+02 2.534849395751953125e+02 2.532543029785156250e+02 2.525984954833984375e+02 2.522453765869140625e+02 2.525083465576171875e+02 2.523704681396484375e+02 2.530416259765625000e+02 2.532714691162109375e+02 2.533809967041015625e+02 2.535841522216796875e+02 2.537605590820312500e+02 2.538507690429687500e+02 2.538296813964843750e+02 2.538601989746093750e+02 2.538709259033203125e+02 2.535906524658203125e+02 2.537349243164062500e+02 2.538088531494140625e+02 2.533964385986328125e+02 2.535084533691406250e+02 2.532826843261718750e+02 2.529621429443359375e+02 2.525541839599609375e+02 2.517337646484375000e+02 2.505174255371093750e+02 2.497438354492187500e+02 2.494887695312500000e+02 2.487484893798828125e+02 2.490062561035156250e+02 2.495168304443359375e+02 2.456139678955078125e+02 2.450613403320312500e+02 2.442670440673828125e+02 2.436719512939453125e+02 2.434957275390625000e+02 2.433825836181640625e+02 2.430050354003906250e+02 2.417342834472656250e+02 2.409927520751953125e+02 2.410373229980468750e+02 2.404811859130859375e+02 2.400548095703125000e+02 2.393967285156250000e+02 2.389562988281250000e+02 2.383626708984375000e+02 2.377511749267578125e+02 2.369344024658203125e+02 2.365206756591796875e+02 2.359554901123046875e+02 2.355757293701171875e+02 2.350557098388671875e+02 2.345348968505859375e+02 2.342780609130859375e+02 2.341411743164062500e+02 2.340138397216796875e+02 2.338643798828125000e+02 2.336223297119140625e+02 2.334279632568359375e+02 2.332210540771484375e+02 2.332547149658203125e+02 2.327792968750000000e+02 2.329896545410156250e+02 2.329132232666015625e+02 2.328916778564453125e+02 2.327623748779296875e+02 2.325925598144531250e+02 2.324460906982421875e+02 2.322602691650390625e+02 2.320665130615234375e+02 2.319097747802734375e+02 2.317881317138671875e+02 2.316578369140625000e+02 2.315102233886718750e+02 2.314117584228515625e+02 2.313189086914062500e+02 2.312470703125000000e+02 2.311631927490234375e+02 2.311020660400390625e+02 2.310298004150390625e+02 2.309581909179687500e+02 2.308560791015625000e+02 2.307791290283203125e+02 2.306465454101562500e+02 2.305283050537109375e+02 2.303531036376953125e+02 2.302068328857421875e+02 2.300000762939453125e+02 2.297724761962890625e+02 2.294926910400390625e+02 2.293398590087890625e+02 2.291615295410156250e+02 2.289502716064453125e+02 2.285943603515625000e+02
2.539911956787109375e+02 2.541545867919921875e+02 2.543124389648437500e+02 2.544408416748046875e+02 2.544775695800781250e+02 2.545464630126953125e+02 2.545418243408203125e+02 2.544505920410156250e+02 2.545818481445312500e+02 2.545435180664062500e+02 2.545003814697265625e+02 2.544774322509765625e+02 2.544889221191406250e+02 2.544239044189453125e+02 2.543720092773437500e+02 2.542821044921875000e+02 2.543416137695312500e+02 2.542728271484375000e+02 2.540929718017578125e+02 2.536300506591796875e+02 2.537992553710937500e+02 2.536816711425781250e+02 2.533856201171875000e+02 2.535112304687500000e+02 2.532964324951171875e+02 2.533216552734375000e+02 2.534259796142578125e+02 2.531582031250000000e+02 2.524494628906250000e+02 2.522091979980468750e+02 2.524715423583984375e+02 2.523325347900390625e+02 2.530148773193359375e+02 2.532388305664062500e+02 2.532941741943359375e+02 2.535180358886718750e+02 2.537037353515625000e+02 2.537545776367187500e+02 2.538238983154296875e+02 2.537620391845703125e+02 2.538702850341796875e+02 2.535395507812500000e+02 2.537578277587890625e+02 2.537955780029296875e+02 2.533740692138671875e+02 2.534475097656250000e+02 2.531611785888671875e+02 2.528240966796875000e+02 2.523410186767578125e+02 2.514741210937500000e+02 2.501974487304687500e+02 2.495266265869140625e+02 2.490495758056640625e+02 2.486802368164062500e+02 2.486055450439453125e+02 2.491306457519531250e+02 2.450750732421875000e+02 2.446155853271484375e+02 2.436634979248046875e+02 2.435859069824218750e+02 2.433172149658203125e+02 2.433727264404296875e+02 2.429035034179687500e+02 2.411806030273437500e+02 2.404122161865234375e+02 2.405394439697265625e+02 2.398979949951171875e+02 2.395032043457031250e+02 2.387070465087890625e+02 2.382052612304687500e+02 2.376462860107421875e+02 2.370404357910156250e+02 2.361919403076171875e+02 2.356553955078125000e+02 2.350181121826171875e+02 2.345869750976562500e+02 2.344440155029296875e+02 2.343012847900390625e+02 2.341783905029296875e+02 2.340325622558593750e+02 2.338304443359375000e+02 2.336560363769531250e+02 2.334583587646484375e+02 2.334095458984375000e+02 2.331679534912109375e+02 2.332263946533203125e+02 2.330204772949218750e+02 2.330911254882812500e+02 2.329062347412109375e+02 2.329066009521484375e+02 2.326980743408203125e+02 2.325286254882812500e+02 2.323944396972656250e+02 2.321938476562500000e+02 2.320315551757812500e+02 2.318759002685546875e+02 2.317296905517578125e+02 2.316063232421875000e+02 2.314634094238281250e+02 2.313759460449218750e+02 2.312903594970703125e+02 2.312185821533203125e+02 2.311397857666015625e+02 2.310814208984375000e+02 2.310080108642578125e+02 2.309393310546875000e+02 2.308395080566406250e+02 2.307641906738281250e+02 2.306333465576171875e+02 2.305159149169921875e+02 2.303423156738281250e+02 2.301953735351562500e+02 2.299873199462890625e+02 2.297592620849609375e+02 2.294763793945312500e+02 2.293321685791015625e+02 2.291473846435546875e+02 2.289342193603515625e+02 2.285782318115234375e+02
2.539662322998046875e+02 2.540977630615234375e+02 2.542848052978515625e+02 2.544325408935546875e+02 2.544594116210937500e+02 2.544774932861328125e+02 2.545107421875000000e+02 2.544950866699218750e+02 2.545721282958984375e+02 2.544974060058593750e+02 2.544729614257812500e+02 2.544868011474609375e+02 2.544987182617187500e+02 2.544176483154296875e+02 2.543633270263671875e+02 2.542827301025390625e+02 2.543572387695312500e+02 2.542892456054687500e+02 2.540979156494140625e+02 2.536088714599609375e+02 2.537642669677734375e+02 2.536568908691406250e+02 2.533176422119140625e+02 2.533762969970703125e+02 2.530910186767578125e+02 2.531812744140625000e+02 2.532883453369140625e+02 2.529808959960937500e+02 2.522666778564453125e+02 2.520908203125000000e+02 2.523824157714843750e+02 2.522069244384765625e+02 2.529106140136718750e+02 2.531002960205078125e+02 2.532199707031250000e+02 2.534249267578125000e+02 2.535283966064453125e+02 2.536435394287109375e+02 2.537444458007812500e+02 2.536152343750000000e+02 2.537918701171875000e+02 2.534822540283203125e+02 2.537113189697265625e+02 2.536991119384765625e+02 2.532687683105468750e+02 2.532409973144531250e+02 2.529085998535156250e+02 2.525797882080078125e+02 2.519201660156250000e+02 2.510174865722656250e+02 2.498277893066406250e+02 2.489208984375000000e+02 2.485755157470703125e+02 2.482660675048828125e+02 2.481961822509765625e+02 2.479410400390625000e+02 2.448198089599609375e+02 2.442589263916015625e+02 2.434309692382812500e+02 2.433028106689453125e+02 2.428533172607421875e+02 2.430107116699218750e+02 2.423973083496093750e+02 2.409221954345703125e+02 2.400450897216796875e+02 2.401977386474609375e+02 2.395446777343750000e+02 2.391528625488281250e+02 2.383857727050781250e+02 2.378728332519531250e+02 2.373750610351562500e+02 2.367620544433593750e+02 2.358974456787109375e+02 2.352869262695312500e+02 2.348952331542968750e+02 2.347463684082031250e+02 2.345890960693359375e+02 2.344580535888671875e+02 2.342840270996093750e+02 2.341197967529296875e+02 2.339661407470703125e+02 2.338045959472656250e+02 2.335976715087890625e+02 2.334863281250000000e+02 2.333148193359375000e+02 2.333403625488281250e+02 2.331694030761718750e+02 2.331444091796875000e+02 2.329973297119140625e+02 2.329301757812500000e+02 2.327203826904296875e+02 2.325012664794921875e+02 2.323419494628906250e+02 2.321307220458984375e+02 2.319556427001953125e+02 2.317947845458984375e+02 2.316527404785156250e+02 2.315405883789062500e+02 2.313999938964843750e+02 2.313202362060546875e+02 2.312416687011718750e+02 2.311808013916015625e+02 2.311045837402343750e+02 2.310487060546875000e+02 2.309793701171875000e+02 2.309166870117187500e+02 2.308172607421875000e+02 2.307434234619140625e+02 2.306155700683593750e+02 2.304997100830078125e+02 2.303264160156250000e+02 2.301778106689453125e+02 2.299698486328125000e+02 2.297393341064453125e+02 2.294664306640625000e+02 2.293227539062500000e+02 2.291379089355468750e+02 2.289248657226562500e+02 2.285690002441406250e+02
2.539283294677734375e+02 2.540991516113281250e+02 2.542608184814453125e+02 2.543688354492187500e+02 2.544108581542968750e+02 2.544271240234375000e+02 2.545012969970703125e+02 2.545046691894531250e+02 2.545310058593750000e+02 2.544609985351562500e+02 2.544717559814453125e+02 2.544729614257812500e+02 2.544743347167968750e+02 2.544097747802734375e+02 2.543818969726562500e+02 2.542508544921875000e+02 2.543521423339843750e+02 2.542845611572265625e+02 2.540757904052734375e+02 2.535853118896484375e+02 2.537444763183593750e+02 2.536403503417968750e+02 2.532541961669921875e+02 2.532670440673828125e+02 2.529622192382812500e+02 2.530673217773437500e+02 2.531928253173828125e+02 2.528624267578125000e+02 2.521538848876953125e+02 2.520637359619140625e+02 2.523291778564453125e+02 2.521144104003906250e+02 2.528463287353515625e+02 2.530318908691406250e+02 2.532171020507812500e+02 2.533467712402343750e+02 2.534686737060546875e+02 2.535127105712890625e+02 2.535732116699218750e+02 2.535215911865234375e+02 2.536912384033203125e+02 2.535280609130859375e+02 2.537021942138671875e+02 2.536416778564453125e+02 2.531049194335937500e+02 2.529704132080078125e+02 2.526655731201171875e+02 2.522481079101562500e+02 2.514943542480468750e+02 2.506653137207031250e+02 2.495240631103515625e+02 2.487211303710937500e+02 2.478394165039062500e+02 2.475397491455078125e+02 2.476625976562500000e+02 2.468874969482421875e+02 2.446630249023437500e+02 2.439387207031250000e+02 2.432739105224609375e+02 2.430503997802734375e+02 2.427754516601562500e+02 2.429767608642578125e+02 2.424280090332031250e+02 2.411524658203125000e+02 2.400507659912109375e+02 2.401600341796875000e+02 2.394766998291015625e+02 2.390530548095703125e+02 2.382300720214843750e+02 2.377316131591796875e+02 2.372115173339843750e+02 2.365496673583984375e+02 2.356562957763671875e+02 2.352228240966796875e+02 2.349811401367187500e+02 2.348341827392578125e+02 2.346815795898437500e+02 2.345436401367187500e+02 2.343554534912109375e+02 2.341878509521484375e+02 2.340369415283203125e+02 2.339536132812500000e+02 2.337926177978515625e+02 2.337067871093750000e+02 2.335406646728515625e+02 2.335158233642578125e+02 2.333125457763671875e+02 2.332222595214843750e+02 2.330113220214843750e+02 2.328943481445312500e+02 2.326882171630859375e+02 2.324550018310546875e+02 2.322937774658203125e+02 2.320859985351562500e+02 2.319183959960937500e+02 2.317687683105468750e+02 2.316278381347656250e+02 2.315240478515625000e+02 2.313856658935546875e+02 2.313062438964843750e+02 2.312207794189453125e+02 2.311636505126953125e+02 2.310884094238281250e+02 2.310330963134765625e+02 2.309636993408203125e+02 2.309015808105468750e+02 2.308030090332031250e+02 2.307315368652343750e+02 2.306024017333984375e+02 2.304859771728515625e+02 2.303132629394531250e+02 2.301655273437500000e+02 2.299580383300781250e+02 2.297257690429687500e+02 2.294611816406250000e+02 2.293167877197265625e+02 2.291285095214843750e+02 2.289095611572265625e+02 2.285544891357421875e+02
2.535586242675781250e+02 2.539520263671875000e+02 2.541824493408203125e+02 2.543273620605468750e+02 2.543701324462890625e+02 2.544169158935546875e+02 2.544353485107421875e+02 2.544851837158203125e+02 2.544955902099609375e+02 2.544538726806640625e+02 2.544505615234375000e+02 2.544577331542968750e+02 2.544655609130859375e+02 2.544039001464843750e+02 2.543660583496093750e+02 2.542505950927734375e+02 2.543286437988281250e+02 2.542469177246093750e+02 2.540709533691406250e+02 2.535513153076171875e+02 2.537058105468750000e+02 2.536374969482421875e+02 2.531568603515625000e+02 2.530829772949218750e+02 2.527314300537109375e+02 2.528664398193359375e+02 2.530328063964843750e+02 2.526783752441406250e+02 2.520130920410156250e+02 2.519465484619140625e+02 2.522407073974609375e+02 2.519450225830078125e+02 2.526977996826171875e+02 2.528257141113281250e+02 2.531287841796875000e+02 2.533045501708984375e+02 2.533904876708984375e+02 2.533799896240234375e+02 2.534023742675781250e+02 2.531822662353515625e+02 2.534480895996093750e+02 2.536298980712890625e+02 2.535667114257812500e+02 2.534589233398437500e+02 2.528064117431640625e+02 2.524903564453125000e+02 2.521637420654296875e+02 2.515896911621093750e+02 2.507434387207031250e+02 2.500182800292968750e+02 2.488418579101562500e+02 2.481136627197265625e+02 2.467068634033203125e+02 2.468407897949218750e+02 2.466215972900390625e+02 2.455440673828125000e+02 2.440547637939453125e+02 2.434488525390625000e+02 2.427717285156250000e+02 2.425637664794921875e+02 2.422032012939453125e+02 2.425022583007812500e+02 2.421124572753906250e+02 2.408209838867187500e+02 2.396947631835937500e+02 2.396787719726562500e+02 2.390551452636718750e+02 2.385689697265625000e+02 2.376580047607421875e+02 2.371269378662109375e+02 2.365736083984375000e+02 2.358995056152343750e+02 2.351446075439453125e+02 2.349562225341796875e+02 2.347770690917968750e+02 2.346575775146484375e+02 2.345205688476562500e+02 2.343778076171875000e+02 2.342253417968750000e+02 2.340788269042968750e+02 2.339451751708984375e+02 2.338673400878906250e+02 2.337454071044921875e+02 2.336535797119140625e+02 2.335142059326171875e+02 2.334366302490234375e+02 2.332809906005859375e+02 2.331433868408203125e+02 2.329429626464843750e+02 2.327739105224609375e+02 2.325491485595703125e+02 2.323434753417968750e+02 2.322221069335937500e+02 2.320423736572265625e+02 2.318657989501953125e+02 2.317267150878906250e+02 2.315966186523437500e+02 2.314832000732421875e+02 2.313571624755859375e+02 2.312773132324218750e+02 2.311947479248046875e+02 2.311381072998046875e+02 2.310622711181640625e+02 2.310073242187500000e+02 2.309398345947265625e+02 2.308775787353515625e+02 2.307797851562500000e+02 2.307095642089843750e+02 2.305813446044921875e+02 2.304657897949218750e+02 2.302934722900390625e+02 2.301473388671875000e+02 2.299407348632812500e+02 2.297123718261718750e+02 2.294509887695312500e+02 2.293033142089843750e+02 2.291163024902343750e+02 2.288958892822265625e+02 2.285408935546875000e+02
2.533338470458984375e+02 2.537985076904296875e+02 2.540071411132812500e+02 2.542098693847656250e+02 2.542730407714843750e+02 2.543489685058593750e+02 2.543147888183593750e+02 2.544831237792968750e+02 2.544788360595703125e+02 2.544449462890625000e+02 2.544402618408203125e+02 2.544602813720703125e+02 2.544476776123046875e+02 2.543952026367187500e+02 2.543450927734375000e+02 2.542517852783203125e+02 2.543045349121093750e+02 2.542344360351562500e+02 2.540259246826171875e+02 2.535372924804687500e+02 2.537151031494140625e+02 2.536219482421875000e+02 2.530659484863281250e+02 2.529255676269531250e+02 2.525479583740234375e+02 2.527137451171875000e+02 2.529165039062500000e+02 2.525558013916015625e+02 2.519705657958984375e+02 2.519400482177734375e+02 2.521645355224609375e+02 2.517986602783203125e+02 2.525554351806640625e+02 2.526874389648437500e+02 2.529465789794921875e+02 2.530732727050781250e+02 2.532686309814453125e+02 2.533685913085937500e+02 2.532631683349609375e+02 2.528031311035156250e+02 2.533199615478515625e+02 2.536445770263671875e+02 2.533806915283203125e+02 2.532123718261718750e+02 2.525651855468750000e+02 2.521606750488281250e+02 2.517796020507812500e+02 2.511026306152343750e+02 2.502683410644531250e+02 2.495548400878906250e+02 2.483328399658203125e+02 2.472767028808593750e+02 2.463347473144531250e+02 2.461425628662109375e+02 2.453726501464843750e+02 2.446237792968750000e+02 2.437239227294921875e+02 2.430869598388671875e+02 2.424740753173828125e+02 2.423112792968750000e+02 2.419924926757812500e+02 2.422918701171875000e+02 2.418824462890625000e+02 2.408446350097656250e+02 2.396557006835937500e+02 2.395057678222656250e+02 2.388390350341796875e+02 2.382131652832031250e+02 2.372365264892578125e+02 2.366391754150390625e+02 2.360811920166015625e+02 2.353536834716796875e+02 2.349618072509765625e+02 2.348114013671875000e+02 2.346375122070312500e+02 2.345212097167968750e+02 2.343881530761718750e+02 2.342760772705078125e+02 2.341401367187500000e+02 2.340258483886718750e+02 2.339121856689453125e+02 2.338150939941406250e+02 2.336798706054687500e+02 2.335943908691406250e+02 2.334231262207031250e+02 2.333399658203125000e+02 2.331724700927734375e+02 2.330269775390625000e+02 2.328771209716796875e+02 2.327175292968750000e+02 2.325062561035156250e+02 2.322939300537109375e+02 2.321653289794921875e+02 2.319993133544921875e+02 2.318248901367187500e+02 2.316976928710937500e+02 2.315581207275390625e+02 2.314531860351562500e+02 2.313353118896484375e+02 2.312594757080078125e+02 2.311786651611328125e+02 2.311213378906250000e+02 2.310497283935546875e+02 2.309953002929687500e+02 2.309263153076171875e+02 2.308654022216796875e+02 2.307677917480468750e+02 2.306977691650390625e+02 2.305694274902343750e+02 2.304549255371093750e+02 2.302832794189453125e+02 2.301370391845703125e+02 2.299294891357421875e+02 2.296976928710937500e+02 2.294453125000000000e+02 2.292953186035156250e+02 2.291036834716796875e+02 2.288782501220703125e+02 2.285231781005859375e+02
2.533629913330078125e+02 2.537309417724609375e+02 2.538625030517578125e+02 2.541197967529296875e+02 2.542933044433593750e+02 2.543028564453125000e+02 2.543628540039062500e+02 2.544008941650390625e+02 2.544071350097656250e+02 2.544132385253906250e+02 2.544349517822265625e+02 2.544504394531250000e+02 2.544204254150390625e+02 2.543956146240234375e+02 2.542937622070312500e+02 2.542636718750000000e+02 2.542548980712890625e+02 2.542757720947265625e+02 2.539557342529296875e+02 2.535068359375000000e+02 2.536919860839843750e+02 2.534988250732421875e+02 2.528905639648437500e+02 2.527409515380859375e+02 2.522949829101562500e+02 2.524380950927734375e+02 2.526804962158203125e+02 2.523404083251953125e+02 2.517133178710937500e+02 2.518062591552734375e+02 2.519457244873046875e+02 2.515068054199218750e+02 2.523209838867187500e+02 2.525092315673828125e+02 2.527203826904296875e+02 2.529198303222656250e+02 2.530694427490234375e+02 2.530111236572265625e+02 2.530802154541015625e+02 2.528200836181640625e+02 2.531876373291015625e+02 2.534170379638671875e+02 2.529353332519531250e+02 2.526924133300781250e+02 2.520835266113281250e+02 2.515956573486328125e+02 2.509771423339843750e+02 2.503304748535156250e+02 2.493834991455078125e+02 2.485185546875000000e+02 2.472336730957031250e+02 2.462595367431640625e+02 2.456253051757812500e+02 2.447227478027343750e+02 2.440956573486328125e+02 2.438295288085937500e+02 2.430825805664062500e+02 2.426587677001953125e+02 2.420146179199218750e+02 2.417916259765625000e+02 2.414217681884765625e+02 2.417897338867187500e+02 2.415049591064453125e+02 2.403934326171875000e+02 2.393019714355468750e+02 2.390061340332031250e+02 2.382311553955078125e+02 2.375528869628906250e+02 2.365188903808593750e+02 2.358850860595703125e+02 2.352677154541015625e+02 2.350310668945312500e+02 2.346921844482421875e+02 2.346113128662109375e+02 2.344902343750000000e+02 2.343791809082031250e+02 2.342439117431640625e+02 2.341237030029296875e+02 2.339934692382812500e+02 2.338869628906250000e+02 2.337639312744140625e+02 2.336554107666015625e+02 2.335201110839843750e+02 2.334075012207031250e+02 2.332705383300781250e+02 2.331766052246093750e+02 2.330063629150390625e+02 2.328443145751953125e+02 2.326976165771484375e+02 2.325323638916015625e+02 2.323556365966796875e+02 2.321949310302734375e+02 2.320451507568359375e+02 2.318916473388671875e+02 2.317388763427734375e+02 2.316195373535156250e+02 2.314960021972656250e+02 2.314020690917968750e+02 2.312913055419921875e+02 2.312189941406250000e+02 2.311422271728515625e+02 2.310875244140625000e+02 2.310201416015625000e+02 2.309671020507812500e+02 2.309020080566406250e+02 2.308431701660156250e+02 2.307462005615234375e+02 2.306765136718750000e+02 2.305500946044921875e+02 2.304363403320312500e+02 2.302651672363281250e+02 2.301179809570312500e+02 2.299107208251953125e+02 2.296845245361328125e+02 2.294381866455078125e+02 2.292835540771484375e+02 2.290929870605468750e+02 2.288662414550781250e+02 2.285118103027343750e+02
2.533755798339843750e+02 2.536245269775390625e+02 2.537137451171875000e+02 2.539375610351562500e+02 2.541881713867187500e+02 2.543514556884765625e+02 2.543428344726562500e+02 2.543724060058593750e+02 2.543630981445312500e+02 2.544310302734375000e+02 2.544428710937500000e+02 2.544490814208984375e+02 2.543871765136718750e+02 2.544199371337890625e+02 2.542398223876953125e+02 2.542631530761718750e+02 2.541726531982421875e+02 2.543056182861328125e+02 2.538961334228515625e+02 2.535041351318359375e+02 2.536508483886718750e+02 2.533398895263671875e+02 2.527117156982421875e+02 2.525373535156250000e+02 2.520940856933593750e+02 2.522631530761718750e+02 2.524537811279296875e+02 2.521569213867187500e+02 2.514689331054687500e+02 2.515609436035156250e+02 2.516123504638671875e+02 2.512704010009765625e+02 2.520074615478515625e+02 2.522867736816406250e+02 2.525027465820312500e+02 2.527635192871093750e+02 2.528055572509765625e+02 2.527550964355468750e+02 2.527838897705078125e+02 2.528419189453125000e+02 2.532888031005859375e+02 2.532131805419921875e+02 2.523464202880859375e+02 2.521067504882812500e+02 2.513964538574218750e+02 2.509667816162109375e+02 2.503282470703125000e+02 2.496520996093750000e+02 2.485499877929687500e+02 2.477086181640625000e+02 2.465866088867187500e+02 2.456539306640625000e+02 2.448311157226562500e+02 2.439765014648437500e+02 2.436450805664062500e+02 2.434622497558593750e+02 2.428886413574218750e+02 2.424191589355468750e+02 2.415488891601562500e+02 2.416308746337890625e+02 2.409772033691406250e+02 2.416412963867187500e+02 2.411873321533203125e+02 2.401770629882812500e+02 2.393186950683593750e+02 2.387818450927734375e+02 2.379412536621093750e+02 2.372486419677734375e+02 2.361793975830078125e+02 2.355162353515625000e+02 2.351540222167968750e+02 2.349264221191406250e+02 2.346007232666015625e+02 2.345163726806640625e+02 2.343848114013671875e+02 2.342648010253906250e+02 2.341306304931640625e+02 2.340058135986328125e+02 2.338705596923828125e+02 2.337483673095703125e+02 2.336284790039062500e+02 2.335322570800781250e+02 2.333983001708984375e+02 2.332928924560546875e+02 2.331673889160156250e+02 2.330628509521484375e+02 2.328947143554687500e+02 2.327269134521484375e+02 2.325869293212890625e+02 2.324357757568359375e+02 2.322567443847656250e+02 2.321201629638671875e+02 2.319907226562500000e+02 2.318514099121093750e+02 2.316956176757812500e+02 2.315823211669921875e+02 2.314635925292968750e+02 2.313723602294921875e+02 2.312631378173828125e+02 2.311901245117187500e+02 2.311095733642578125e+02 2.310574951171875000e+02 2.309894409179687500e+02 2.309389953613281250e+02 2.308779296875000000e+02 2.308199615478515625e+02 2.307259216308593750e+02 2.306575469970703125e+02 2.305314941406250000e+02 2.304167633056640625e+02 2.302465362548828125e+02 2.301003112792968750e+02 2.298940429687500000e+02 2.296669006347656250e+02 2.294275817871093750e+02 2.292717437744140625e+02 2.290778503417968750e+02 2.288418884277343750e+02 2.284834442138671875e+02
2.534483032226562500e+02 2.535915679931640625e+02 2.535809326171875000e+02 2.539942626953125000e+02 2.541712646484375000e+02 2.542792053222656250e+02 2.542901153564453125e+02 2.543252563476562500e+02 2.543470153808593750e+02 2.544074249267578125e+02 2.544280700683593750e+02 2.544501647949218750e+02 2.543960876464843750e+02 2.544029235839843750e+02 2.541768951416015625e+02 2.542641296386718750e+02 2.541075744628906250e+02 2.542926635742187500e+02 2.538023529052734375e+02 2.535606842041015625e+02 2.535128631591796875e+02 2.530169830322265625e+02 2.525220642089843750e+02 2.522500000000000000e+02 2.517820434570312500e+02 2.519617309570312500e+02 2.520928802490234375e+02 2.518819580078125000e+02 2.511926727294921875e+02 2.510989990234375000e+02 2.511738433837890625e+02 2.510506439208984375e+02 2.515715179443359375e+02 2.521078643798828125e+02 2.522307281494140625e+02 2.524517211914062500e+02 2.522986297607421875e+02 2.525144348144531250e+02 2.527649078369140625e+02 2.527977447509765625e+02 2.530146942138671875e+02 2.526854400634765625e+02 2.515452270507812500e+02 2.511807861328125000e+02 2.504487915039062500e+02 2.500489654541015625e+02 2.494361724853515625e+02 2.486630706787109375e+02 2.474563293457031250e+02 2.465290985107421875e+02 2.453954162597656250e+02 2.445583953857421875e+02 2.440179595947265625e+02 2.437167510986328125e+02 2.433715362548828125e+02 2.431140594482421875e+02 2.424710540771484375e+02 2.418382568359375000e+02 2.411674499511718750e+02 2.412069549560546875e+02 2.408216705322265625e+02 2.416699066162109375e+02 2.406405639648437500e+02 2.400102233886718750e+02 2.390470581054687500e+02 2.383926239013671875e+02 2.375425415039062500e+02 2.368849182128906250e+02 2.358340759277343750e+02 2.353023681640625000e+02 2.351264038085937500e+02 2.348501434326171875e+02 2.345651855468750000e+02 2.344611053466796875e+02 2.343207397460937500e+02 2.341975250244140625e+02 2.340569610595703125e+02 2.339244384765625000e+02 2.337843322753906250e+02 2.336588134765625000e+02 2.335312347412109375e+02 2.334353027343750000e+02 2.333106689453125000e+02 2.332058715820312500e+02 2.330742950439453125e+02 2.329342956542968750e+02 2.327621917724609375e+02 2.326153411865234375e+02 2.324742736816406250e+02 2.323441619873046875e+02 2.321801757812500000e+02 2.320471038818359375e+02 2.319195556640625000e+02 2.317910919189453125e+02 2.316499633789062500e+02 2.315375671386718750e+02 2.314224700927734375e+02 2.313312988281250000e+02 2.312258605957031250e+02 2.311525573730468750e+02 2.310755004882812500e+02 2.310254364013671875e+02 2.309582824707031250e+02 2.309089965820312500e+02 2.308476867675781250e+02 2.307893524169921875e+02 2.306966705322265625e+02 2.306288146972656250e+02 2.305051574707031250e+02 2.303914337158203125e+02 2.302210235595703125e+02 2.300748443603515625e+02 2.298692626953125000e+02 2.296469268798828125e+02 2.294112243652343750e+02 2.292521667480468750e+02 2.290603790283203125e+02 2.288202514648437500e+02 2.284593353271484375e+02
2.534288024902343750e+02 2.536192169189453125e+02 2.535136413574218750e+02 2.539122619628906250e+02 2.541697082519531250e+02 2.542067718505859375e+02 2.542793579101562500e+02 2.542998657226562500e+02 2.543576812744140625e+02 2.544054412841796875e+02 2.544317169189453125e+02 2.544472656250000000e+02 2.544227294921875000e+02 2.543793792724609375e+02 2.541259155273437500e+02 2.542619476318359375e+02 2.540355682373046875e+02 2.542428588867187500e+02 2.536784210205078125e+02 2.536070404052734375e+02 2.533973541259765625e+02 2.526580963134765625e+02 2.523578491210937500e+02 2.519787597656250000e+02 2.514916687011718750e+02 2.516382751464843750e+02 2.517182159423828125e+02 2.516338653564453125e+02 2.509448242187500000e+02 2.506331787109375000e+02 2.509210357666015625e+02 2.509841461181640625e+02 2.511511535644531250e+02 2.520172576904296875e+02 2.521304321289062500e+02 2.520373535156250000e+02 2.519365081787109375e+02 2.526244506835937500e+02 2.527671356201171875e+02 2.528277130126953125e+02 2.526678619384765625e+02 2.520723571777343750e+02 2.512575988769531250e+02 2.506586914062500000e+02 2.498571777343750000e+02 2.493656616210937500e+02 2.484616546630859375e+02 2.476201324462890625e+02 2.463892822265625000e+02 2.455443878173828125e+02 2.445320892333984375e+02 2.440527954101562500e+02 2.437028808593750000e+02 2.434048004150390625e+02 2.429989318847656250e+02 2.426796875000000000e+02 2.418654327392578125e+02 2.414594573974609375e+02 2.410792694091796875e+02 2.412652130126953125e+02 2.414062347412109375e+02 2.416559753417968750e+02 2.405329895019531250e+02 2.402235717773437500e+02 2.387127075195312500e+02 2.380598907470703125e+02 2.373605194091796875e+02 2.366937408447265625e+02 2.356342620849609375e+02 2.352481231689453125e+02 2.350284271240234375e+02 2.347634277343750000e+02 2.345303039550781250e+02 2.344210815429687500e+02 2.342765350341796875e+02 2.341426544189453125e+02 2.340069580078125000e+02 2.338722381591796875e+02 2.337361907958984375e+02 2.336113891601562500e+02 2.334787902832031250e+02 2.333928833007812500e+02 2.332507629394531250e+02 2.331291656494140625e+02 2.329921112060546875e+02 2.328507080078125000e+02 2.326875305175781250e+02 2.325414581298828125e+02 2.323993377685546875e+02 2.322754669189453125e+02 2.321192016601562500e+02 2.319947967529296875e+02 2.318662414550781250e+02 2.317427215576171875e+02 2.316109619140625000e+02 2.315052947998046875e+02 2.313921051025390625e+02 2.313034515380859375e+02 2.311979827880859375e+02 2.311305694580078125e+02 2.310551605224609375e+02 2.310068359375000000e+02 2.309423522949218750e+02 2.308938903808593750e+02 2.308320312500000000e+02 2.307743072509765625e+02 2.306817779541015625e+02 2.306153259277343750e+02 2.304913330078125000e+02 2.303782806396484375e+02 2.302097167968750000e+02 2.300641479492187500e+02 2.298576507568359375e+02 2.296326904296875000e+02 2.294051666259765625e+02 2.292447967529296875e+02 2.290473327636718750e+02 2.288022308349609375e+02 2.284415130615234375e+02
2.532804718017578125e+02 2.534786682128906250e+02 2.536319580078125000e+02 2.537866058349609375e+02 2.539730072021484375e+02 2.540073852539062500e+02 2.541428680419921875e+02 2.542159271240234375e+02 2.543561096191406250e+02 2.543918304443359375e+02 2.544384002685546875e+02 2.544605407714843750e+02 2.544186096191406250e+02 2.543472900390625000e+02 2.541328125000000000e+02 2.542092590332031250e+02 2.539848327636718750e+02 2.541661987304687500e+02 2.535423736572265625e+02 2.536214447021484375e+02 2.532303924560546875e+02 2.522062530517578125e+02 2.520308990478515625e+02 2.515950775146484375e+02 2.511105499267578125e+02 2.512048492431640625e+02 2.512272644042968750e+02 2.511981811523437500e+02 2.505484313964843750e+02 2.499360351562500000e+02 2.507364501953125000e+02 2.508152618408203125e+02 2.508874816894531250e+02 2.519271545410156250e+02 2.518049774169921875e+02 2.518631591796875000e+02 2.516824798583984375e+02 2.523600311279296875e+02 2.523348388671875000e+02 2.520968017578125000e+02 2.519205780029296875e+02 2.511371917724609375e+02 2.505547180175781250e+02 2.498495178222656250e+02 2.487628021240234375e+02 2.480335540771484375e+02 2.470758514404296875e+02 2.461464538574218750e+02 2.450387573242187500e+02 2.445548858642578125e+02 2.440513153076171875e+02 2.436682891845703125e+02 2.433341217041015625e+02 2.429884643554687500e+02 2.425162200927734375e+02 2.420489807128906250e+02 2.413978424072265625e+02 2.412373962402343750e+02 2.409137725830078125e+02 2.413182525634765625e+02 2.409640502929687500e+02 2.405998992919921875e+02 2.403448791503906250e+02 2.393156585693359375e+02 2.379573516845703125e+02 2.374598846435546875e+02 2.367738952636718750e+02 2.360612182617187500e+02 2.351507263183593750e+02 2.349785308837890625e+02 2.347467346191406250e+02 2.345446777343750000e+02 2.343759613037109375e+02 2.342695159912109375e+02 2.341230163574218750e+02 2.339894866943359375e+02 2.338507995605468750e+02 2.337171478271484375e+02 2.335914611816406250e+02 2.334794616699218750e+02 2.333471984863281250e+02 2.332565155029296875e+02 2.331199188232421875e+02 2.329955291748046875e+02 2.328577270507812500e+02 2.327236022949218750e+02 2.325709838867187500e+02 2.324353485107421875e+02 2.323016815185546875e+02 2.321765594482421875e+02 2.320295257568359375e+02 2.319116363525390625e+02 2.317904968261718750e+02 2.316753540039062500e+02 2.315540466308593750e+02 2.314531707763671875e+02 2.313509063720703125e+02 2.312683410644531250e+02 2.311680908203125000e+02 2.311023864746093750e+02 2.310300140380859375e+02 2.309815521240234375e+02 2.309185638427734375e+02 2.308713989257812500e+02 2.308118438720703125e+02 2.307555999755859375e+02 2.306643218994140625e+02 2.305976409912109375e+02 2.304738922119140625e+02 2.303604278564453125e+02 2.301926727294921875e+02 2.300460968017578125e+02 2.298400726318359375e+02 2.296208343505859375e+02 2.293996124267578125e+02 2.292353210449218750e+02 2.290382995605468750e+02 2.287919311523437500e+02 2.284318847656250000e+02
2.529975433349609375e+02 2.533809967041015625e+02 2.534597625732421875e+02 2.537984313964843750e+02 2.538146057128906250e+02 2.539411773681640625e+02 2.541660308837890625e+02 2.541891632080078125e+02 2.543461914062500000e+02 2.543656311035156250e+02 2.544382781982421875e+02 2.544557342529296875e+02 2.544289855957031250e+02 2.543117675781250000e+02 2.542325134277343750e+02 2.541853027343750000e+02 2.539251403808593750e+02 2.540971527099609375e+02 2.534334564208984375e+02 2.535839080810546875e+02 2.530895996093750000e+02 2.519102478027343750e+02 2.517367095947265625e+02 2.513409576416015625e+02 2.507636718750000000e+02 2.508672332763671875e+02 2.509403533935546875e+02 2.509009857177734375e+02 2.502504882812500000e+02 2.494604187011718750e+02 2.504153137207031250e+02 2.506769409179687500e+02 2.506865997314453125e+02 2.515365295410156250e+02 2.517041015625000000e+02 2.518737335205078125e+02 2.513281860351562500e+02 2.519245147705078125e+02 2.517351226806640625e+02 2.515449829101562500e+02 2.512075347900390625e+02 2.504759521484375000e+02 2.497740020751953125e+02 2.488495330810546875e+02 2.475728607177734375e+02 2.468246307373046875e+02 2.458390350341796875e+02 2.453909759521484375e+02 2.448773956298828125e+02 2.444243927001953125e+02 2.439818878173828125e+02 2.436627349853515625e+02 2.432806854248046875e+02 2.429442901611328125e+02 2.423653259277343750e+02 2.420810394287109375e+02 2.415587768554687500e+02 2.414786071777343750e+02 2.413166961669921875e+02 2.414569091796875000e+02 2.407790679931640625e+02 2.410550079345703125e+02 2.398766326904296875e+02 2.385025024414062500e+02 2.374855804443359375e+02 2.371031494140625000e+02 2.363920135498046875e+02 2.357538604736328125e+02 2.351515808105468750e+02 2.349180297851562500e+02 2.346653900146484375e+02 2.344929046630859375e+02 2.343404998779296875e+02 2.342298583984375000e+02 2.340801849365234375e+02 2.339454345703125000e+02 2.338085174560546875e+02 2.336744537353515625e+02 2.335456695556640625e+02 2.334311828613281250e+02 2.332989959716796875e+02 2.332060546875000000e+02 2.330632476806640625e+02 2.329259490966796875e+02 2.327874145507812500e+02 2.326522369384765625e+02 2.324950714111328125e+02 2.323647766113281250e+02 2.322336883544921875e+02 2.321227569580078125e+02 2.319813995361328125e+02 2.318654327392578125e+02 2.317439575195312500e+02 2.316361083984375000e+02 2.315154266357421875e+02 2.314192810058593750e+02 2.313189849853515625e+02 2.312420501708984375e+02 2.311448364257812500e+02 2.310816192626953125e+02 2.310115509033203125e+02 2.309635620117187500e+02 2.309008026123046875e+02 2.308549346923828125e+02 2.307963409423828125e+02 2.307397003173828125e+02 2.306486663818359375e+02 2.305822753906250000e+02 2.304588928222656250e+02 2.303454132080078125e+02 2.301776123046875000e+02 2.300321960449218750e+02 2.298260040283203125e+02 2.296078948974609375e+02 2.293932952880859375e+02 2.292279663085937500e+02 2.290299377441406250e+02 2.287796478271484375e+02 2.284178314208984375e+02
2.526064758300781250e+02 2.532763671875000000e+02 2.533813476562500000e+02 2.536917266845703125e+02 2.537284698486328125e+02 2.539343414306640625e+02 2.540836334228515625e+02 2.541770629882812500e+02 2.543240509033203125e+02 2.543666076660156250e+02 2.544414367675781250e+02 2.544334564208984375e+02 2.544116363525390625e+02 2.542418823242187500e+02 2.542609252929687500e+02 2.542002410888671875e+02 2.539104766845703125e+02 2.540437164306640625e+02 2.532451782226562500e+02 2.534369964599609375e+02 2.529157562255859375e+02 2.515337677001953125e+02 2.513852996826171875e+02 2.510057067871093750e+02 2.503966369628906250e+02 2.504916229248046875e+02 2.504516448974609375e+02 2.503334808349609375e+02 2.497095642089843750e+02 2.489542236328125000e+02 2.498596954345703125e+02 2.502645874023437500e+02 2.505783386230468750e+02 2.513485717773437500e+02 2.510672760009765625e+02 2.510252075195312500e+02 2.507832641601562500e+02 2.510487823486328125e+02 2.508093414306640625e+02 2.500837402343750000e+02 2.493323516845703125e+02 2.487505493164062500e+02 2.475787200927734375e+02 2.467357482910156250e+02 2.459957427978515625e+02 2.455533905029296875e+02 2.448642883300781250e+02 2.444044189453125000e+02 2.439018402099609375e+02 2.435265808105468750e+02 2.431755828857421875e+02 2.428577270507812500e+02 2.424513092041015625e+02 2.420879058837890625e+02 2.416046142578125000e+02 2.413232421875000000e+02 2.408689117431640625e+02 2.409513244628906250e+02 2.408059082031250000e+02 2.408469543457031250e+02 2.407000579833984375e+02 2.404805603027343750e+02 2.386577911376953125e+02 2.379397125244140625e+02 2.371166381835937500e+02 2.367852172851562500e+02 2.361689758300781250e+02 2.355367126464843750e+02 2.352165222167968750e+02 2.348734436035156250e+02 2.346486053466796875e+02 2.344846801757812500e+02 2.343282775878906250e+02 2.342038574218750000e+02 2.340508575439453125e+02 2.339106292724609375e+02 2.337703094482421875e+02 2.336295013427734375e+02 2.334944458007812500e+02 2.333709106445312500e+02 2.332478485107421875e+02 2.331460266113281250e+02 2.329911346435546875e+02 2.328452453613281250e+02 2.327023620605468750e+02 2.325656585693359375e+02 2.324090118408203125e+02 2.322814636230468750e+02 2.321544189453125000e+02 2.320492401123046875e+02 2.319144592285156250e+02 2.318025360107421875e+02 2.316879272460937500e+02 2.315853576660156250e+02 2.314669036865234375e+02 2.313725128173828125e+02 2.312788696289062500e+02 2.312029266357421875e+02 2.311094055175781250e+02 2.310485229492187500e+02 2.309827270507812500e+02 2.309358520507812500e+02 2.308739929199218750e+02 2.308286590576171875e+02 2.307717285156250000e+02 2.307148590087890625e+02 2.306234130859375000e+02 2.305574035644531250e+02 2.304357604980468750e+02 2.303233032226562500e+02 2.301564331054687500e+02 2.300111999511718750e+02 2.298070068359375000e+02 2.295928955078125000e+02 2.293827056884765625e+02 2.292161102294921875e+02 2.290192565917968750e+02 2.287682495117187500e+02 2.284055633544921875e+02
2.523506164550781250e+02 2.530593261718750000e+02 2.532423553466796875e+02 2.535083312988281250e+02 2.536774597167968750e+02 2.538939666748046875e+02 2.540387573242187500e+02 2.541823577880859375e+02 2.542953186035156250e+02 2.543719787597656250e+02 2.544326019287109375e+02 2.544415588378906250e+02 2.543973388671875000e+02 2.541804809570312500e+02 2.542813262939453125e+02 2.542036132812500000e+02 2.538950042724609375e+02 2.539513092041015625e+02 2.530976104736328125e+02 2.533317871093750000e+02 2.527317657470703125e+02 2.512593231201171875e+02 2.511990509033203125e+02 2.507504577636718750e+02 2.500944671630859375e+02 2.502007446289062500e+02 2.501276855468750000e+02 2.500276794433593750e+02 2.494136810302734375e+02 2.484185943603515625e+02 2.492644195556640625e+02 2.499733276367187500e+02 2.505645141601562500e+02 2.515426177978515625e+02 2.505116729736328125e+02 2.503940124511718750e+02 2.498116912841796875e+02 2.505304718017578125e+02 2.499821777343750000e+02 2.493203125000000000e+02 2.483337554931640625e+02 2.480414276123046875e+02 2.471582183837890625e+02 2.467487030029296875e+02 2.460133972167968750e+02 2.456300506591796875e+02 2.451343994140625000e+02 2.446775207519531250e+02 2.442476196289062500e+02 2.439009552001953125e+02 2.435207672119140625e+02 2.432311706542968750e+02 2.427802276611328125e+02 2.425792388916015625e+02 2.421488037109375000e+02 2.419549713134765625e+02 2.416732788085937500e+02 2.416598052978515625e+02 2.412942352294921875e+02 2.412006683349609375e+02 2.404022064208984375e+02 2.393746948242187500e+02 2.380395355224609375e+02 2.377308959960937500e+02 2.369651947021484375e+02 2.366146392822265625e+02 2.359576263427734375e+02 2.355210418701171875e+02 2.351065063476562500e+02 2.347807769775390625e+02 2.345920410156250000e+02 2.344297943115234375e+02 2.342759246826171875e+02 2.341492309570312500e+02 2.339964447021484375e+02 2.338499908447265625e+02 2.337070465087890625e+02 2.335695190429687500e+02 2.334384765625000000e+02 2.333251342773437500e+02 2.331894073486328125e+02 2.330763397216796875e+02 2.329288635253906250e+02 2.327850799560546875e+02 2.326443023681640625e+02 2.325073547363281250e+02 2.323609771728515625e+02 2.322369537353515625e+02 2.321080932617187500e+02 2.320033111572265625e+02 2.318691101074218750e+02 2.317640533447265625e+02 2.316495361328125000e+02 2.315513305664062500e+02 2.314396057128906250e+02 2.313510894775390625e+02 2.312572937011718750e+02 2.311823425292968750e+02 2.310896453857421875e+02 2.310310974121093750e+02 2.309631500244140625e+02 2.309180603027343750e+02 2.308584289550781250e+02 2.308148956298828125e+02 2.307568359375000000e+02 2.307012329101562500e+02 2.306117095947265625e+02 2.305470733642578125e+02 2.304242401123046875e+02 2.303128356933593750e+02 2.301469268798828125e+02 2.300037994384765625e+02 2.297990264892578125e+02 2.295843658447265625e+02 2.293811645507812500e+02 2.292133941650390625e+02 2.290135650634765625e+02 2.287590942382812500e+02 2.283959808349609375e+02
2.521560516357421875e+02 2.528191375732421875e+02 2.531448364257812500e+02 2.533179779052734375e+02 2.535635375976562500e+02 2.537386322021484375e+02 2.539993286132812500e+02 2.541622924804687500e+02 2.542461090087890625e+02 2.543826751708984375e+02 2.544179840087890625e+02 2.544370574951171875e+02 2.543602447509765625e+02 2.541153717041015625e+02 2.542953796386718750e+02 2.541722717285156250e+02 2.538444824218750000e+02 2.538088989257812500e+02 2.529003601074218750e+02 2.530404815673828125e+02 2.524126586914062500e+02 2.508562469482421875e+02 2.507854156494140625e+02 2.503842926025390625e+02 2.495569000244140625e+02 2.496342926025390625e+02 2.494879913330078125e+02 2.493733215332031250e+02 2.487598266601562500e+02 2.474752502441406250e+02 2.482663879394531250e+02 2.492691650390625000e+02 2.501457214355468750e+02 2.510247039794921875e+02 2.498374786376953125e+02 2.491296844482421875e+02 2.490311584472656250e+02 2.484059906005859375e+02 2.478409881591796875e+02 2.477411804199218750e+02 2.470027313232421875e+02 2.467496795654296875e+02 2.459840698242187500e+02 2.455108795166015625e+02 2.448313751220703125e+02 2.444322357177734375e+02 2.439484710693359375e+02 2.434654388427734375e+02 2.430045318603515625e+02 2.426253814697265625e+02 2.423008880615234375e+02 2.420002288818359375e+02 2.415657043457031250e+02 2.414058380126953125e+02 2.409490509033203125e+02 2.408246917724609375e+02 2.404311218261718750e+02 2.402443847656250000e+02 2.398951110839843750e+02 2.397412109375000000e+02 2.386133575439453125e+02 2.379740905761718750e+02 2.372984771728515625e+02 2.370219268798828125e+02 2.363900909423828125e+02 2.359406433105468750e+02 2.354286193847656250e+02 2.351564331054687500e+02 2.347512817382812500e+02 2.345342559814453125e+02 2.344172363281250000e+02 2.342591094970703125e+02 2.341091003417968750e+02 2.339824066162109375e+02 2.338306732177734375e+02 2.336954650878906250e+02 2.335556030273437500e+02 2.334309387207031250e+02 2.333072052001953125e+02 2.332002563476562500e+02 2.330762023925781250e+02 2.329627227783203125e+02 2.328107910156250000e+02 2.326710815429687500e+02 2.325325927734375000e+02 2.324031677246093750e+02 2.322626800537109375e+02 2.321380462646484375e+02 2.320138702392578125e+02 2.319102020263671875e+02 2.317827453613281250e+02 2.316849822998046875e+02 2.315797119140625000e+02 2.314872436523437500e+02 2.313806610107421875e+02 2.312962493896484375e+02 2.312107086181640625e+02 2.311389312744140625e+02 2.310498352050781250e+02 2.309922332763671875e+02 2.309282836914062500e+02 2.308850708007812500e+02 2.308289031982421875e+02 2.307857360839843750e+02 2.307298431396484375e+02 2.306746978759765625e+02 2.305874938964843750e+02 2.305235748291015625e+02 2.304036560058593750e+02 2.302934570312500000e+02 2.301295776367187500e+02 2.299868621826171875e+02 2.297843627929687500e+02 2.295731506347656250e+02 2.293759307861328125e+02 2.292056121826171875e+02 2.290071716308593750e+02 2.287536773681640625e+02 2.283906707763671875e+02
2.517630615234375000e+02 2.526986541748046875e+02 2.529952087402343750e+02 2.532043304443359375e+02 2.535220794677734375e+02 2.537422180175781250e+02 2.539538269042968750e+02 2.540942840576171875e+02 2.542220001220703125e+02 2.543569335937500000e+02 2.544212188720703125e+02 2.544407196044921875e+02 2.543640747070312500e+02 2.541439971923828125e+02 2.542898864746093750e+02 2.541532745361328125e+02 2.537510223388671875e+02 2.536491088867187500e+02 2.527592620849609375e+02 2.527826080322265625e+02 2.521112365722656250e+02 2.505849761962890625e+02 2.505136871337890625e+02 2.500680389404296875e+02 2.491046600341796875e+02 2.491560974121093750e+02 2.489222717285156250e+02 2.488164978027343750e+02 2.481596374511718750e+02 2.466900024414062500e+02 2.472799682617187500e+02 2.484862060546875000e+02 2.496303558349609375e+02 2.505322875976562500e+02 2.487126922607421875e+02 2.486666870117187500e+02 2.477900238037109375e+02 2.467692413330078125e+02 2.471127319335937500e+02 2.469550781250000000e+02 2.461866149902343750e+02 2.458443298339843750e+02 2.452375183105468750e+02 2.447207794189453125e+02 2.440912475585937500e+02 2.436654357910156250e+02 2.431864776611328125e+02 2.427223052978515625e+02 2.421850891113281250e+02 2.418796539306640625e+02 2.414962768554687500e+02 2.412436218261718750e+02 2.408459930419921875e+02 2.406997680664062500e+02 2.402698669433593750e+02 2.401611328125000000e+02 2.397027587890625000e+02 2.396091308593750000e+02 2.391339263916015625e+02 2.386861419677734375e+02 2.378140563964843750e+02 2.375012054443359375e+02 2.369565429687500000e+02 2.366739044189453125e+02 2.359714813232421875e+02 2.355247039794921875e+02 2.353055877685546875e+02 2.349767608642578125e+02 2.346566772460937500e+02 2.344766845703125000e+02 2.343598480224609375e+02 2.342092285156250000e+02 2.340615539550781250e+02 2.339344329833984375e+02 2.337807006835937500e+02 2.336457824707031250e+02 2.335003356933593750e+02 2.333771362304687500e+02 2.332542419433593750e+02 2.331442108154296875e+02 2.330287780761718750e+02 2.329004974365234375e+02 2.327390594482421875e+02 2.325987243652343750e+02 2.324511718750000000e+02 2.323262023925781250e+02 2.321914520263671875e+02 2.320747528076171875e+02 2.319540863037109375e+02 2.318568267822265625e+02 2.317330169677734375e+02 2.316381072998046875e+02 2.315326843261718750e+02 2.314435272216796875e+02 2.313396911621093750e+02 2.312600555419921875e+02 2.311752319335937500e+02 2.311055145263671875e+02 2.310198669433593750e+02 2.309656066894531250e+02 2.309033203125000000e+02 2.308602142333984375e+02 2.308040924072265625e+02 2.307627105712890625e+02 2.307090454101562500e+02 2.306542205810546875e+02 2.305681610107421875e+02 2.305055541992187500e+02 2.303860626220703125e+02 2.302766876220703125e+02 2.301140594482421875e+02 2.299727325439453125e+02 2.297710723876953125e+02 2.295619659423828125e+02 2.293693084716796875e+02 2.291990509033203125e+02 2.290005493164062500e+02 2.287448272705078125e+02 2.283809356689453125e+02
2.513359680175781250e+02 2.524458160400390625e+02 2.527273406982421875e+02 2.530052795410156250e+02 2.533470153808593750e+02 2.536240692138671875e+02 2.539234924316406250e+02 2.540355987548828125e+02 2.541805114746093750e+02 2.543246917724609375e+02 2.544182891845703125e+02 2.544185638427734375e+02 2.543200683593750000e+02 2.542229461669921875e+02 2.542576904296875000e+02 2.541443328857421875e+02 2.536971588134765625e+02 2.534684906005859375e+02 2.525424652099609375e+02 2.524434661865234375e+02 2.518100280761718750e+02 2.502239227294921875e+02 2.499956817626953125e+02 2.495142822265625000e+02 2.485082397460937500e+02 2.485714416503906250e+02 2.483055877685546875e+02 2.481035461425781250e+02 2.472397460937500000e+02 2.457942352294921875e+02 2.458495788574218750e+02 2.473891601562500000e+02 2.484915618896484375e+02 2.494181365966796875e+02 2.474425354003906250e+02 2.477568664550781250e+02 2.459110870361328125e+02 2.456238098144531250e+02 2.460612792968750000e+02 2.459258270263671875e+02 2.455164489746093750e+02 2.451999359130859375e+02 2.444999694824218750e+02 2.439621582031250000e+02 2.433669586181640625e+02 2.428688507080078125e+02 2.424417266845703125e+02 2.420322875976562500e+02 2.415488281250000000e+02 2.412953948974609375e+02 2.409380645751953125e+02 2.407055053710937500e+02 2.403397827148437500e+02 2.401662597656250000e+02 2.398267669677734375e+02 2.396519165039062500e+02 2.392355804443359375e+02 2.390213165283203125e+02 2.385854644775390625e+02 2.382468719482421875e+02 2.375986328125000000e+02 2.372901763916015625e+02 2.367624359130859375e+02 2.363771820068359375e+02 2.357141265869140625e+02 2.355228881835937500e+02 2.352189636230468750e+02 2.348588104248046875e+02 2.346285400390625000e+02 2.344545135498046875e+02 2.343218536376953125e+02 2.341769561767578125e+02 2.340279388427734375e+02 2.338901672363281250e+02 2.337368164062500000e+02 2.335956420898437500e+02 2.334517974853515625e+02 2.333249053955078125e+02 2.332094268798828125e+02 2.330975646972656250e+02 2.329600067138671875e+02 2.328225402832031250e+02 2.326504058837890625e+02 2.325142517089843750e+02 2.323686981201171875e+02 2.322429199218750000e+02 2.321078796386718750e+02 2.319977416992187500e+02 2.318836669921875000e+02 2.317922210693359375e+02 2.316719512939453125e+02 2.315794067382812500e+02 2.314783935546875000e+02 2.313930969238281250e+02 2.312934265136718750e+02 2.312154541015625000e+02 2.311344757080078125e+02 2.310659027099609375e+02 2.309838714599609375e+02 2.309295196533203125e+02 2.308707580566406250e+02 2.308289947509765625e+02 2.307738189697265625e+02 2.307342987060546875e+02 2.306819152832031250e+02 2.306285858154296875e+02 2.305444946289062500e+02 2.304822692871093750e+02 2.303654174804687500e+02 2.302578430175781250e+02 2.300965118408203125e+02 2.299564361572265625e+02 2.297565155029296875e+02 2.295504150390625000e+02 2.293619537353515625e+02 2.291910247802734375e+02 2.289941558837890625e+02 2.287402801513671875e+02 2.283766937255859375e+02
2.509819488525390625e+02 2.521399383544921875e+02 2.525907287597656250e+02 2.528167114257812500e+02 2.532082977294921875e+02 2.535573425292968750e+02 2.538833312988281250e+02 2.539731903076171875e+02 2.541916961669921875e+02 2.542759552001953125e+02 2.544069976806640625e+02 2.543849029541015625e+02 2.542836303710937500e+02 2.542736206054687500e+02 2.542286529541015625e+02 2.541073608398437500e+02 2.535758361816406250e+02 2.534061737060546875e+02 2.525678710937500000e+02 2.522426147460937500e+02 2.516739044189453125e+02 2.500214996337890625e+02 2.498508148193359375e+02 2.493218231201171875e+02 2.482555694580078125e+02 2.482284240722656250e+02 2.479192199707031250e+02 2.475756378173828125e+02 2.466009979248046875e+02 2.457102203369140625e+02 2.447553100585937500e+02 2.467617950439453125e+02 2.475646209716796875e+02 2.487772521972656250e+02 2.475170898437500000e+02 2.467480621337890625e+02 2.452808380126953125e+02 2.452876434326171875e+02 2.455417785644531250e+02 2.454299163818359375e+02 2.451051635742187500e+02 2.445224304199218750e+02 2.440950775146484375e+02 2.435714721679687500e+02 2.429543914794921875e+02 2.425769500732421875e+02 2.421547698974609375e+02 2.418630218505859375e+02 2.413946228027343750e+02 2.412181854248046875e+02 2.408329620361328125e+02 2.406340484619140625e+02 2.402266998291015625e+02 2.400554046630859375e+02 2.396576690673828125e+02 2.394687500000000000e+02 2.390048980712890625e+02 2.387332611083984375e+02 2.382968444824218750e+02 2.379593658447265625e+02 2.372998809814453125e+02 2.369841918945312500e+02 2.364293823242187500e+02 2.359324645996093750e+02 2.356171112060546875e+02 2.353480987548828125e+02 2.350455474853515625e+02 2.347425689697265625e+02 2.345664520263671875e+02 2.344032897949218750e+02 2.342742919921875000e+02 2.341277008056640625e+02 2.339683074951171875e+02 2.338391265869140625e+02 2.336917572021484375e+02 2.335554199218750000e+02 2.334182128906250000e+02 2.332979583740234375e+02 2.331758422851562500e+02 2.330410308837890625e+02 2.329059906005859375e+02 2.327731781005859375e+02 2.326002349853515625e+02 2.324643249511718750e+02 2.323298034667968750e+02 2.322038116455078125e+02 2.320680694580078125e+02 2.319595642089843750e+02 2.318408355712890625e+02 2.317520446777343750e+02 2.316336059570312500e+02 2.315456390380859375e+02 2.314441070556640625e+02 2.313612976074218750e+02 2.312644348144531250e+02 2.311902770996093750e+02 2.311086425781250000e+02 2.310422058105468750e+02 2.309616546630859375e+02 2.309103088378906250e+02 2.308516998291015625e+02 2.308117675781250000e+02 2.307588043212890625e+02 2.307213592529296875e+02 2.306671600341796875e+02 2.306149902343750000e+02 2.305313110351562500e+02 2.304712371826171875e+02 2.303548431396484375e+02 2.302481994628906250e+02 2.300882873535156250e+02 2.299502105712890625e+02 2.297498168945312500e+02 2.295443115234375000e+02 2.293594055175781250e+02 2.291885986328125000e+02 2.289913940429687500e+02 2.287385406494140625e+02 2.283766937255859375e+02
